# .PCD v0.7 - Point Cloud Data file format
VERSION 0.7
FIELDS x y z rgb
SIZE 4 4 4 4
TYPE F F F F
COUNT 1 1 1 1
WIDTH 1081
HEIGHT 1
VIEWPOINT 0 0 0 1 0 0 0
POINTS 1081
DATA ascii
2.1691623 -1.5311211 4.0531645 9.219563e-39
2.1891894 -1.528788 4.0445724 9.219563e-39
2.1564391 -1.5120703 4.0584602 9.219563e-39
2.1683457 -1.5101655 4.0533476 9.219563e-39
2.188134 -1.5094385 4.0448704 9.219563e-39
2.1563635 -1.4900508 4.0583172 9.219563e-39
2.1675298 -1.4892067 4.0535302 9.219563e-39
2.1898668 -1.4914207 4.0439854 9.219563e-39
2.1562874 -1.4680328 4.0581746 9.219563e-39
2.1690612 -1.4712859 4.052732 9.219563e-39
2.1889849 -1.4702721 4.0441942 9.219563e-39
2.1562245 -1.4496857 4.0580559 9.219563e-39
2.1693285 -1.4506098 4.0524535 9.219563e-39
2.1889141 -1.4497941 4.0440621 9.219563e-39
2.1561613 -1.4313397 4.0579371 9.219563e-39
2.1710367 -1.429087 4.0515509 9.219563e-39
2.1926563 -1.4310364 4.0423107 9.219563e-39
2.1560857 -1.409326 4.0577946 9.219563e-39
2.1697774 -1.4087495 4.0519285 9.219563e-39
2.1910057 -1.4123474 4.0428686 9.219563e-39
2.1560225 -1.3909822 4.0576758 9.219563e-39
2.1720934 -1.3908147 4.0507946 9.219563e-39
2.1887078 -1.3898301 4.043674 9.219563e-39
2.1559594 -1.3726397 4.0575571 9.219563e-39
2.1708338 -1.3704796 4.0511718 9.219563e-39
2.1886311 -1.3678952 4.0435324 9.219563e-39
2.1534925 -1.3495028 4.0584292 9.219563e-39
2.16995 -1.3492856 4.0513816 9.219563e-39
2.1885672 -1.349617 4.0434141 9.219563e-39
2.1528256 -1.329041 4.0585518 9.219563e-39
2.1706934 -1.3301914 4.0509114 9.219563e-39
2.1885035 -1.3313402 4.0432963 9.219563e-39
2.1521585 -1.3085769 4.0586748 9.219563e-39
2.1714392 -1.3111039 4.0504408 9.219563e-39
2.1884267 -1.3094094 4.0431547 9.219563e-39
2.153291 -1.2908032 4.0580492 9.219563e-39
2.1705549 -1.2899122 4.0506511 9.219563e-39
2.1877632 -1.2890223 4.0432763 9.219563e-39
2.1526239 -1.2703418 4.0581717 9.219563e-39
2.1696711 -1.2687167 4.0508609 9.219563e-39
2.1888857 -1.2713189 4.042655 9.219563e-39
2.1525481 -1.2483321 4.0580292 9.219563e-39
2.1714089 -1.2507243 4.049974 9.219563e-39
2.1882224 -1.2509345 4.0427775 9.219563e-39
2.1524851 -1.2299922 4.05791 9.219563e-39
2.1703517 -1.2313308 4.050272 9.219563e-39
2.1881459 -1.2290093 4.0426354 9.219563e-39
2.1524222 -1.2116532 4.0577912 9.219563e-39
2.1702754 -1.2093655 4.0501304 9.219563e-39
2.1874824 -1.2086223 4.0427575 9.219563e-39
2.1523466 -1.189648 4.0576491 9.219563e-39
2.1690164 -1.1890147 4.0505071 9.219563e-39
2.1886048 -1.1909337 4.0421362 9.219563e-39
2.1516795 -1.1691843 4.0577717 9.219563e-39
2.1713319 -1.1711476 4.0493741 9.219563e-39
2.1879416 -1.1705494 4.0422587 9.219563e-39
2.1528118 -1.1514359 4.0571456 9.219563e-39
2.1700726 -1.1507992 4.0497513 9.219563e-39
2.1878648 -1.1486298 4.0421166 9.219563e-39
2.1521447 -1.1309748 4.0572686 9.219563e-39
2.1699967 -1.1288396 4.0496092 9.219563e-39
2.1878009 -1.1303644 4.0419989 9.219563e-39
2.1520691 -1.1089751 4.057126 9.219563e-39
2.1689384 -1.1094365 4.0499072 9.219563e-39
2.1877372 -1.1121005 4.0418811 9.219563e-39
2.1520061 -1.0906432 4.0570073 9.219563e-39
2.1706779 -1.0914841 4.0490208 9.219563e-39
2.1876609 -1.0901849 4.0417395 9.219563e-39
2.1519432 -1.0723125 4.0568886 9.219563e-39
2.1697938 -1.0702883 4.0492301 9.219563e-39
2.1875842 -1.0682709 4.0415983 9.219563e-39
2.1518676 -1.0503169 4.0567465 9.219563e-39
2.1697176 -1.0483344 4.0490885 9.219563e-39
2.1875205 -1.0500103 4.0414801 9.219563e-39
2.151792 -1.0283229 4.0566034 9.219563e-39
2.1686594 -1.028928 4.049387 9.219563e-39
2.1874566 -1.031751 4.0413623 9.219563e-39
2.1517289 -1.0099958 4.0564852 9.219563e-39
2.1703985 -1.0109951 4.0484996 9.219563e-39
2.1844213 -1.0101582 4.04249 9.219563e-39
2.1516659 -0.99166983 4.056366 9.219563e-39
2.1695147 -0.98979813 4.0487103 9.219563e-39
2.1843448 -0.98824286 4.0423489 9.219563e-39
2.1515903 -0.96968001 4.0562234 9.219563e-39
2.1686313 -0.96859735 4.0489197 9.219563e-39
2.1842811 -0.96998131 4.0422306 9.219563e-39
2.1485317 -0.94799066 4.0573606 9.219563e-39
2.1703689 -0.95067936 4.0480332 9.219563e-39
2.1842175 -0.95172089 4.0421128 9.219563e-39
2.1484687 -0.92966241 4.0572419 9.219563e-39
2.169312 -0.9312728 4.0483313 9.219563e-39
2.1841409 -0.92980963 4.0419712 9.219563e-39
2.1484058 -0.91133529 4.0571232 9.219563e-39
2.1692355 -0.90932852 4.0481896 9.219563e-39
2.1840646 -0.90790004 4.0418296 9.219563e-39
2.1483302 -0.88934422 4.0569806 9.219563e-39
2.1679771 -0.88895953 4.0485663 9.219563e-39
2.184001 -0.88964313 4.0417118 9.219563e-39
2.1475124 -0.86833853 4.0571637 9.219563e-39
2.1702919 -0.87118495 4.0474343 9.219563e-39
2.1839371 -0.8713873 4.041594 9.219563e-39
2.1490493 -0.85052413 4.0563641 9.219563e-39
2.1690328 -0.8508184 4.047811 9.219563e-39
2.1838608 -0.84948176 4.0414524 9.219563e-39
2.148129 -0.83070874 4.0566006 9.219563e-39
2.168957 -0.82887977 4.0476689 9.219563e-39
2.1837842 -0.82757777 4.0413113 9.219563e-39
2.1510327 -0.80846852 4.055181 9.219563e-39
2.1718643 -0.81034374 4.0462775 9.219563e-39
2.1837206 -0.80932546 4.041193 9.219563e-39
2.1509697 -0.79015428 4.0550618 9.219563e-39
2.1718006 -0.79206967 4.0461597 9.219563e-39
2.1836574 -0.79107445 4.0410762 9.219563e-39
2.1509066 -0.77184111 4.0549431 9.219563e-39
2.1717243 -0.77014208 4.0460181 9.219563e-39
2.1835806 -0.76917458 4.0409341 9.219563e-39
2.150831 -0.74986666 4.0548015 9.219563e-39
2.1716485 -0.74821609 4.045876 9.219563e-39
2.183517 -0.75092566 4.0408163 9.219563e-39
2.1499457 -0.72862142 4.0550108 9.219563e-39
2.1715851 -0.72994566 4.0457578 9.219563e-39
2.1834533 -0.732678 4.0406985 9.219563e-39
2.15169 -0.71072918 4.054122 9.219563e-39
2.1715217 -0.7116763 4.0456395 9.219563e-39
2.183377 -0.71078211 4.0405574 9.219563e-39
2.1506298 -0.69127584 4.0544214 9.219563e-39
2.1714456 -0.68975425 4.0454979 9.219563e-39
2.1833003 -0.68888783 4.0404153 9.219563e-39
2.1505544 -0.66930705 4.0542793 9.219563e-39
2.1713693 -0.66783398 4.0453558 9.219563e-39
2.1832366 -0.67064369 4.0402975 9.219563e-39
2.149292 -0.64888489 4.0546575 9.219563e-39
2.1713059 -0.64956814 4.045238 9.219563e-39
2.1831729 -0.65240073 4.0401797 9.219563e-39
2.1516151 -0.63115084 4.0535212 9.219563e-39
2.1712427 -0.63130349 4.0451198 9.219563e-39
2.1831093 -0.63415867 4.040062 9.219563e-39
2.1503532 -0.61073124 4.0538993 9.219563e-39
2.1711667 -0.60938722 4.0449781 9.219563e-39
2.1502779 -0.58876812 4.0537572 9.219563e-39
2.1703525 -0.58843112 4.0451603 9.219563e-39
2.1352611 -0.56036866 4.0599604 9.219563e-39
2.1492169 -0.56930542 4.0540562 9.219563e-39
2.1718802 -0.57072443 4.0443654 9.219563e-39
2.1352234 -0.54937136 4.0598888 9.219563e-39
2.1509626 -0.55145288 4.0531673 9.219563e-39
2.1709638 -0.55095124 4.0446005 9.219563e-39
2.1351607 -0.53104353 4.0597701 9.219563e-39
2.1500762 -0.5302074 4.0533776 9.219563e-39
2.1708879 -0.52904069 4.0444584 9.219563e-39
2.1350858 -0.50905138 4.0596271 9.219563e-39
2.1500008 -0.50824982 4.0532355 9.219563e-39
2.1699715 -0.50926298 4.0446939 9.219563e-39
2.1350231 -0.49072582 4.0595083 9.219563e-39
2.1499379 -0.48995319 4.0531173 9.219563e-39
2.1714997 -0.49157429 4.0438991 9.219563e-39
2.1349607 -0.47240129 4.0593891 9.219563e-39
2.1498749 -0.4716576 4.0529981 9.219563e-39
2.1706853 -0.47061983 4.0440807 9.219563e-39
2.1348858 -0.45041332 4.0592465 9.219563e-39
2.1497996 -0.4497042 4.052856 9.219563e-39
2.170609 -0.44871488 4.0439396 9.219563e-39
2.1348107 -0.42842689 4.059104 9.219563e-39
2.149724 -0.42775238 4.0527139 9.219563e-39
2.1705458 -0.43046179 4.0438213 9.219563e-39
2.134748 -0.410106 4.0589852 9.219563e-39
2.1496613 -0.4094604 4.0525956 9.219563e-39
2.1704824 -0.41220993 4.0437031 9.219563e-39
2.1346858 -0.39178625 4.0588665 9.219563e-39
2.1495986 -0.39116955 4.0524769 9.219563e-39
2.1704066 -0.39030901 4.0435619 9.219563e-39
2.1346104 -0.36980394 4.0587234 9.219563e-39
2.1495228 -0.36922184 4.0523348 9.219563e-39
2.1703303 -0.36840963 4.0434203 9.219563e-39
2.1345356 -0.34782317 4.0585809 9.219563e-39
2.1482615 -0.34878153 4.0527124 9.219563e-39
2.1702671 -0.35016128 4.0433025 9.219563e-39
2.1344731 -0.32950702 4.0584621 9.219563e-39
2.1505837 -0.33113998 4.0515776 9.219563e-39
2.1702039 -0.33191407 4.0431843 9.219563e-39
2.1344106 -0.31119201 4.0583434 9.219563e-39
2.1493218 -0.31070217 4.0519557 9.219563e-39
2.1701279 -0.31001875 4.0430431 9.219563e-39
2.1343355 -0.28921533 4.0582008 9.219563e-39
2.1492465 -0.28876013 4.0518136 9.219563e-39
2.1700518 -0.28812498 4.042901 9.219563e-39
2.1342731 -0.27090263 4.0580816 9.219563e-39
2.1491838 -0.27047625 4.0516953 9.219563e-39
2.1699884 -0.26988134 4.0427833 9.219563e-39
2.1342106 -0.25259101 4.0579629 9.219563e-39
2.1491208 -0.25219348 4.0515761 9.219563e-39
2.1699252 -0.2516388 4.0426655 9.219563e-39
2.1341357 -0.23061852 4.0578208 9.219563e-39
2.1490455 -0.23025554 4.051434 9.219563e-39
2.1681588 -0.23083206 4.0432563 9.219563e-39
2.1340609 -0.2086475 4.0576782 9.219563e-39
2.1489704 -0.20831914 4.0512924 9.219563e-39
2.1668091 -0.20792629 4.0436525 9.219563e-39
2.1369839 -0.19027951 4.0562806 9.219563e-39
2.1518867 -0.1899801 4.0498981 9.219563e-39
2.1667461 -0.18968159 4.0435343 9.219563e-39
2.1356373 -0.17095491 4.056704 9.219563e-39
2.151824 -0.17170781 4.0497799 9.219563e-39
2.166683 -0.17143798 4.0434165 9.219563e-39
2.1338582 -0.15006579 4.0572991 9.219563e-39
2.1517487 -0.14978242 4.0496383 9.219563e-39
2.1666067 -0.14954709 4.0432744 9.219563e-39
2.1337831 -0.12810043 4.0571566 9.219563e-39
2.1516728 -0.12785858 4.0494962 9.219563e-39
2.1665308 -0.12765767 4.0431333 9.219563e-39
2.1337211 -0.10979714 4.0570378 9.219563e-39
2.1516101 -0.10958982 4.0493779 9.219563e-39
2.1664677 -0.10941765 4.0430155 9.219563e-39
2.1336584 -0.09149497 4.0569186 9.219563e-39
2.1515472 -0.091322221 4.0492592 9.219563e-39
2.1664045 -0.091178745 4.0428972 9.219563e-39
2.1335835 -0.069533743 4.056776 9.219563e-39
2.1514719 -0.069402479 4.0491171 9.219563e-39
2.1663287 -0.069293432 4.0427556 9.219563e-39
2.1335084 -0.047574066 4.0566339 9.219563e-39
2.1513965 -0.047484256 4.048975 9.219563e-39
2.1662529 -0.047409654 4.0426145 9.219563e-39
2.133446 -0.029275479 4.0565152 9.219563e-39
2.1513333 -0.02922021 4.0488567 9.219563e-39
2.1661894 -0.029174309 4.0424962 9.219563e-39
2.1333838 -0.010978033 4.0563965 9.219563e-39
2.1512706 -0.010957308 4.0487385 9.219563e-39
2.1661263 -0.010940094 4.0423779 9.219563e-39
2.1333084 0.010977533 4.0562534 9.219563e-39
2.151195 0.010956811 4.0485969 9.219563e-39
2.1660507 0.010939598 4.0422368 9.219563e-39
2.1332462 0.029272696 4.0561347 9.219563e-39
2.1511323 0.029217437 4.0484786 9.219563e-39
2.1659875 0.029171541 4.042119 9.219563e-39
2.1331835 0.047566716 4.056016 9.219563e-39
2.1510692 0.047476925 4.0483599 9.219563e-39
2.1659241 0.047402348 4.0420008 9.219563e-39
2.1331086 0.069518171 4.0558739 9.219563e-39
2.1509941 0.069386944 4.0482178 9.219563e-39
2.1658485 0.069277957 4.0418591 9.219563e-39
2.1330338 0.091468066 4.0557313 9.219563e-39
2.1509187 0.091295436 4.0480757 9.219563e-39
2.1657727 0.091152042 4.041718 9.219563e-39
2.1329715 0.10975853 4.0556126 9.219563e-39
2.1508558 0.10955136 4.0479579 9.219563e-39
2.1657095 0.10937929 4.0416002 9.219563e-39
2.1329088 0.12804784 4.0554938 9.219563e-39
2.1507928 0.12780616 4.0478392 9.219563e-39
2.1656463 0.12760542 4.0414824 9.219563e-39
2.1328342 0.14999363 4.0553517 9.219563e-39
2.1507177 0.14971055 4.0476971 9.219563e-39
2.1655705 0.14947541 4.0413404 9.219563e-39
2.1327591 0.17193788 4.0552092 9.219563e-39
2.1506422 0.1716134 4.0475559 9.219563e-39
2.1625292 0.1713977 4.0424685 9.219563e-39
2.1326964 0.19022362 4.0550904 9.219563e-39
2.1505792 0.18986464 4.0474377 9.219563e-39
2.162466 0.18962601 4.0423508 9.219563e-39
2.1326342 0.20850822 4.0549717 9.219563e-39
2.1505165 0.20811474 4.0473194 9.219563e-39
2.1624029 0.20785318 4.0422325 9.219563e-39
2.1295707 0.23052108 4.0561085 9.219563e-39
2.1504412 0.2300135 4.0471773 9.219563e-39
2.1623271 0.22972441 4.0420909 9.219563e-39
2.1303129 0.25177929 4.0556216 9.219563e-39
2.1503656 0.25191075 4.0470352 9.219563e-39
2.1622517 0.25159416 4.0419497 9.219563e-39
2.1284411 0.26956159 4.0562811 9.219563e-39
2.1503031 0.27015725 4.046917 9.219563e-39
2.1621885 0.26981777 4.041832 9.219563e-39
2.1293709 0.28903902 4.0557284 9.219563e-39
2.1502399 0.28840268 4.0467992 9.219563e-39
2.1621253 0.28804025 4.0417137 9.219563e-39
2.1292961 0.31098044 4.0555863 9.219563e-39
2.1501646 0.31029579 4.0466576 9.219563e-39
2.1620495 0.30990589 4.0415726 9.219563e-39
2.1292462 0.32560724 4.055491 1.0418106e-38
2.1501145 0.3248904 4.0465627 9.4961499e-39
2.1619992 0.3244822 4.0414782 9.219563e-39
2.1153407 -1.7621708 4.0780435 9.219563e-39
2.1213539 -1.7610546 4.0754604 9.219563e-39
2.1152909 -1.7474142 4.0779476 9.219563e-39
2.1311452 -1.7511954 4.0711899 9.219563e-39
2.1495757 -1.7495096 4.0632868 9.219563e-39
2.1152287 -1.7289696 4.0778275 9.219563e-39
2.1302543 -1.7299184 4.0714021 9.219563e-39
2.1482298 -1.7303156 4.0637102 9.219563e-39
2.1151664 -1.7105259 4.0777073 9.219563e-39
2.1289849 -1.7095091 4.071784 9.219563e-39
2.1481667 -1.7119359 4.063591 9.219563e-39
2.1150916 -1.688395 4.0775633 9.219563e-39
2.1313236 -1.6914018 4.0706382 9.219563e-39
2.1480911 -1.6898817 4.063448 9.219563e-39
2.1150293 -1.6699536 4.0774431 9.219563e-39
2.1300542 -1.6709952 4.0710196 9.219563e-39
2.1474233 -1.6694038 4.063571 9.219563e-39
2.1119573 -1.6520371 4.0786166 9.219563e-39
2.129164 -1.6497132 4.0712314 9.219563e-39
2.1485577 -1.6515528 4.0629435 9.219563e-39
2.1118829 -1.6299034 4.0784721 9.219563e-39
2.1299157 -1.6304903 4.0707564 9.219563e-39
2.1478894 -1.6310774 4.0630665 9.219563e-39
2.1112111 -1.6093481 4.0785966 9.219563e-39
2.1306701 -1.6112742 4.0702815 9.219563e-39
2.147814 -1.6090288 4.0629234 9.219563e-39
2.1123552 -1.5914404 4.0779638 9.219563e-39
2.1297786 -1.5899944 4.0704937 9.219563e-39
2.147146 -1.5885513 4.0630469 9.219563e-39
2.1116838 -1.5708877 4.0780883 9.219563e-39
2.1288886 -1.5687108 4.0707059 9.219563e-39
2.1482804 -1.570715 4.0624194 9.219563e-39
2.1116092 -1.5487596 4.0779443 9.219563e-39
2.1306443 -1.5505642 4.0698094 9.219563e-39
2.1476126 -1.5502399 4.0625424 9.219563e-39
2.111547 -1.5303208 4.0778241 9.219563e-39
2.1295788 -1.5310979 4.0701113 9.219563e-39
2.147537 -1.5281972 4.0623999 9.219563e-39
2.111485 -1.5118829 4.077704 9.219563e-39
2.1295035 -1.5090145 4.0699673 9.219563e-39
2.1474741 -1.5098289 4.0622807 9.219563e-39
2.1114104 -1.4897593 4.0775604 9.219563e-39
2.1282344 -1.4885919 4.0703478 9.219563e-39
2.1474111 -1.4914622 4.0621614 9.219563e-39
2.110739 -1.4692042 4.0776844 9.219563e-39
2.1305728 -1.470553 4.0692039 9.219563e-39
2.1473355 -1.4694233 4.0620189 9.219563e-39
2.1118829 -1.4513222 4.0770521 9.219563e-39
2.1293035 -1.450133 4.0695853 9.219563e-39
2.1466677 -1.4489459 4.0621414 9.219563e-39
2.1112115 -1.4307698 4.0771766 9.219563e-39
2.1284134 -1.4288468 4.069797 9.219563e-39
2.1478019 -1.4311354 4.0615149 9.219563e-39
2.1111369 -1.4086515 4.0770321 9.219563e-39
2.1301689 -1.4107354 4.0689011 9.219563e-39
2.1471341 -1.4106606 4.0616379 9.219563e-39
2.1110752 -1.390221 4.0769124 9.219563e-39
2.1291034 -1.3912629 4.0692024 9.219563e-39
2.1470585 -1.3886275 4.0614948 9.219563e-39
2.1110127 -1.3717914 4.0767922 9.219563e-39
2.1290283 -1.3691893 4.0690589 9.219563e-39
2.1469958 -1.3702676 4.0613756 9.219563e-39
2.1139445 -1.3492503 4.0753579 9.219563e-39
2.131103 -1.3489134 4.0680094 9.219563e-39
2.1454458 -1.3539577 4.0619092 9.219563e-39
2.1130178 -1.3293694 4.0755968 9.219563e-39
2.132648 -1.3309568 4.0672054 9.219563e-39
2.1438711 -1.3302996 4.0623956 9.219563e-39
2.1145692 -1.3113831 4.0747895 9.219563e-39
2.1318266 -1.3099197 4.0673895 9.219563e-39
2.143796 -1.3082652 4.0622525 9.219563e-39
2.1137457 -1.2903059 4.074975 9.219563e-39
2.1310062 -1.2888792 4.067574 9.219563e-39
2.143733 -1.2899044 4.0621338 9.219563e-39
2.11148 -1.2678266 4.0757656 9.219563e-39
2.13255 -1.2709361 4.0667706 9.219563e-39
2.1436703 -1.2715446 4.0620146 9.219563e-39
2.109592 -1.249087 4.0764256 9.219563e-39
2.1316266 -1.2510942 4.0670075 9.219563e-39
2.1435947 -1.2495142 4.0618715 9.219563e-39
2.1113558 -1.230986 4.0755258 9.219563e-39
2.1315515 -1.2290375 4.066865 9.219563e-39
2.1435194 -1.2274855 4.061729 9.219563e-39
2.1104627 -1.2096589 4.0757394 9.219563e-39
2.1306279 -1.2091912 4.0671024 9.219563e-39
2.1434565 -1.2091293 4.0616093 9.219563e-39
2.1091902 -1.1891793 4.0761209 9.219563e-39
2.1321723 -1.1912663 4.066299 9.219563e-39
2.1433938 -1.1907744 4.061491 9.219563e-39
2.111537 -1.1711992 4.0749731 9.219563e-39
2.1313515 -1.1702273 4.066483 9.219563e-39
2.1433182 -1.1687497 4.061348 9.219563e-39
2.1102641 -1.1507221 4.0753551 9.219563e-39
2.1312761 -1.1481764 4.0663395 9.219563e-39
2.1432555 -1.1503969 4.0612288 9.219563e-39
2.1101897 -1.1286238 4.0752115 9.219563e-39
2.1312139 -1.1298019 4.0662198 9.219563e-39
2.143193 -1.1320454 4.06111 9.219563e-39
2.1091204 -1.1090981 4.0755138 9.219563e-39
2.1311512 -1.1114283 4.0661006 9.219563e-39
2.1431174 -1.1100249 4.060967 9.219563e-39
2.110884 -1.091032 4.074616 9.219563e-39
2.1310761 -1.0893813 4.065958 9.219563e-39
2.1430418 -1.088006 4.0608239 9.219563e-39
2.1099911 -1.0697023 4.0748281 9.219563e-39
2.1301525 -1.0695313 4.066195 9.219563e-39
2.1429791 -1.069658 4.0607052 9.219563e-39
2.1087186 -1.0492142 4.0752096 9.219563e-39
2.1316969 -1.051638 4.0653915 9.219563e-39
2.1429164 -1.051311 4.060586 9.219563e-39
2.1110651 -1.0312775 4.0740628 9.219563e-39
2.1308761 -1.0305974 4.0655761 9.219563e-39
2.1428411 -1.0292963 4.0604434 9.219563e-39
2.1097925 -1.0107919 4.0744443 9.219563e-39
2.1308012 -1.0085564 4.065433 9.219563e-39
2.1427784 -1.0109518 4.0603247 9.219563e-39
2.1097181 -0.98870343 4.0743008 9.219563e-39
2.1307385 -0.99018985 4.0653138 9.219563e-39
2.1427155 -0.99260837 4.0602055 9.219563e-39
2.108649 -0.96917176 4.0746031 9.219563e-39
2.130676 -0.97182441 4.0651941 9.219563e-39
2.1426401 -0.97059774 4.0600629 9.219563e-39
2.1104124 -0.95114046 4.0737047 9.219563e-39
2.1306014 -0.94978756 4.0650511 9.219563e-39
2.1095197 -0.92980832 4.0739179 9.219563e-39
2.1297808 -0.92874283 4.0652347 9.219563e-39
2.1086278 -0.90847242 4.0741301 9.219563e-39
2.1313243 -0.9108811 4.0644321 9.219563e-39
2.1103892 -0.89045608 4.0732327 9.219563e-39
2.1304011 -0.89102978 4.0646701 9.219563e-39
2.0942545 -0.86861879 4.0799665 9.219563e-39
2.1093209 -0.87092423 4.0735345 9.219563e-39
2.1303263 -0.86899835 4.064527 9.219563e-39
2.094193 -0.85019088 4.0798464 9.219563e-39
2.1092465 -0.84884554 4.0733905 9.219563e-39
2.1294029 -0.84914243 4.0647645 9.219563e-39
2.0941191 -0.82807875 4.0797024 9.219563e-39
2.1081781 -0.82930791 4.0736933 9.219563e-39
2.1309466 -0.83129883 4.0639615 9.219563e-39
2.0940573 -0.8096531 4.0795822 9.219563e-39
2.1099408 -0.81131154 4.0727954 9.219563e-39
2.1301262 -0.81025583 4.0641456 9.219563e-39
2.0954967 -0.78926206 4.078804 9.219563e-39
2.1098709 -0.79057813 4.0726604 9.219563e-39
2.1300514 -0.78823018 4.064002 9.219563e-39
2.096936 -0.76887703 4.0780253 9.219563e-39
2.1112342 -0.76864022 4.0719023 9.219563e-39
2.1299889 -0.76987666 4.0638833 9.219563e-39
2.0968742 -0.75046074 4.0779057 9.219563e-39
2.1127837 -0.75078094 4.0710974 9.219563e-39
2.1299264 -0.75152421 4.0637641 9.219563e-39
2.0968127 -0.73204559 4.0777855 9.219563e-39
2.1118579 -0.73088759 4.0713353 9.219563e-39
2.1298513 -0.72950274 4.063621 9.219563e-39
2.0967386 -0.70994872 4.0776415 9.219563e-39
2.1117833 -0.70882583 4.0711918 9.219563e-39
2.1290314 -0.7084555 4.0638046 9.219563e-39
2.0966644 -0.68785352 4.0774975 9.219563e-39
2.1117213 -0.69044209 4.0710721 9.219563e-39
2.1305745 -0.69064361 4.0630026 9.219563e-39
2.0966027 -0.669442 4.0773773 9.219563e-39
2.1116593 -0.6720596 4.0709524 9.219563e-39
2.1296518 -0.67078632 4.0632396 9.219563e-39
2.0965412 -0.65103155 4.0772576 9.219563e-39
2.1115849 -0.65000188 4.0708094 9.219563e-39
2.1295767 -0.64877051 4.0630965 9.219563e-39
2.096467 -0.62894052 4.0771136 9.219563e-39
2.1115103 -0.62794584 4.0706658 9.219563e-39
2.1295145 -0.6304251 4.0629773 9.219563e-39
2.0964055 -0.61053252 4.0769939 9.219563e-39
2.1114485 -0.60956687 4.0705457 9.219563e-39
2.1294518 -0.61208081 4.0628581 9.219563e-39
2.0963438 -0.59212559 4.0768738 9.219563e-39
2.1113863 -0.59118915 4.070426 9.219563e-39
2.1293769 -0.59006923 4.0627155 9.219563e-39
2.0962696 -0.57003868 4.0767293 9.219563e-39
2.1113122 -0.56913716 4.0702829 9.219563e-39
2.1285572 -0.56902033 4.0628991 9.219563e-39
2.0961957 -0.54795331 4.0765858 9.219563e-39
2.1103864 -0.54923552 4.0705214 9.219563e-39
2.1262476 -0.54989195 4.063736 9.219563e-39
2.0961342 -0.52954996 4.0764661 9.219563e-39
2.1119361 -0.53142601 4.069716 9.219563e-39
2.1261852 -0.53154665 4.0636163 9.219563e-39
2.0960724 -0.5111478 4.0763459 9.219563e-39
2.1111135 -0.51033962 4.0699 9.219563e-39
2.1261103 -0.5095337 4.0634732 9.219563e-39
2.0959985 -0.48906663 4.0762019 9.219563e-39
2.1110392 -0.48829332 4.0697565 9.219563e-39
2.1260357 -0.48752227 4.0633307 9.219563e-39
2.0920539 -0.46928006 4.077733 9.219563e-39
2.1109774 -0.46992263 4.0696373 9.219563e-39
2.1259732 -0.46918058 4.0632114 9.219563e-39
2.0936103 -0.45145488 4.0769258 9.219563e-39
2.1109152 -0.45155302 4.0695176 9.219563e-39
2.1259112 -0.45084003 4.0630922 9.219563e-39
2.0927858 -0.43032742 4.0771103 9.219563e-39
2.1108408 -0.42951095 4.0693741 9.219563e-39
2.1258361 -0.42883277 4.0629492 9.219563e-39
2.0927117 -0.40824497 4.0769668 9.219563e-39
2.110019 -0.40842026 4.0695586 9.219563e-39
2.1257739 -0.41049451 4.0628304 9.219563e-39
2.0926502 -0.38984403 4.0768466 9.219563e-39
2.1115677 -0.39064243 4.0687542 9.219563e-39
2.1257117 -0.39215741 4.0627112 9.219563e-39
2.0925887 -0.37144426 4.0767264 9.219563e-39
2.1106424 -0.37073958 4.0689926 9.219563e-39
2.1256366 -0.37015423 4.0625682 9.219563e-39
2.092515 -0.34936592 4.0765834 9.219563e-39
2.110568 -0.34870315 4.0688491 9.219563e-39
2.125562 -0.34815267 4.0624251 9.219563e-39
2.0915866 -0.32942063 4.0768213 9.219563e-39
2.1105063 -0.33034059 4.0687294 9.219563e-39
2.1254997 -0.32981911 4.0623064 9.219563e-39
2.0931423 -0.31162706 4.076014 9.219563e-39
2.1104441 -0.3119792 4.0686097 9.219563e-39
2.1254375 -0.31148672 4.0621872 9.219563e-39
2.0923178 -0.29049805 4.0761991 9.219563e-39
2.1103699 -0.28994691 4.0684662 9.219563e-39
2.1253624 -0.28948927 4.0620441 9.219563e-39
2.0922441 -0.26842543 4.0760555 9.219563e-39
2.1102955 -0.26791623 4.0683231 9.219563e-39
2.1252878 -0.26749334 4.0619011 9.219563e-39
2.0921826 -0.25003275 4.0759358 9.219563e-39
2.1102338 -0.24955846 4.0682034 9.219563e-39
2.1252253 -0.24916452 4.0617819 9.219563e-39
2.0921211 -0.23164122 4.0758162 9.219563e-39
2.1101718 -0.23120183 4.0680852 9.219563e-39
2.1251636 -0.23083693 4.0616636 9.219563e-39
2.0920472 -0.20957276 4.0756721 9.219563e-39
2.1100976 -0.20917526 4.0679417 9.219563e-39
2.1250887 -0.20884509 4.0615211 9.219563e-39
2.0919733 -0.18750586 4.0755286 9.219563e-39
2.1100357 -0.19082092 4.067822 9.219563e-39
2.1250262 -0.19051974 4.0614014 9.219563e-39
2.0919118 -0.16911793 4.0754085 9.219563e-39
2.1099737 -0.17246774 4.0677023 9.219563e-39
2.1243706 -0.17367183 4.0615487 9.219563e-39
2.0918505 -0.15073115 4.0752888 9.219563e-39
2.1098993 -0.15044528 4.0675597 9.219563e-39
2.1218965 -0.15025525 4.0624218 9.219563e-39
2.0917766 -0.1286684 4.0751448 9.219563e-39
2.1098247 -0.12842438 4.0674162 9.219563e-39
2.1218219 -0.12826216 4.0622787 9.219563e-39
2.0917151 -0.11028393 4.0750251 9.219563e-39
2.1097631 -0.11007478 4.0672965 9.219563e-39
2.1217594 -0.10993575 4.0621595 9.219563e-39
2.0916531 -0.091900609 4.0749044 9.219563e-39
2.1097012 -0.091726333 4.0671773 9.219563e-39
2.1216972 -0.091610469 4.0620403 9.219563e-39
2.0795126 -0.069930576 4.0799279 9.219563e-39
2.0915799 -0.069842011 4.0747614 9.219563e-39
2.1096268 -0.069709569 4.0670338 9.219563e-39
2.1216228 -0.069621526 4.0618978 9.219563e-39
2.0794392 -0.047845561 4.0797839 9.219563e-39
2.0915058 -0.047784969 4.0746174 9.219563e-39
2.1095526 -0.047694355 4.0668907 9.219563e-39
2.1215482 -0.047634125 4.0617547 9.219563e-39
2.0793777 -0.029442539 4.0796633 9.219563e-39
2.0914443 -0.029405257 4.0744977 9.219563e-39
2.1094906 -0.029349498 4.066771 9.219563e-39
2.1214859 -0.029312436 4.061636 9.219563e-39
2.0793169 -0.011040677 4.0795436 9.219563e-39
2.0913827 -0.011026697 4.074378 9.219563e-39
2.1094284 -0.011005789 4.0666523 9.219563e-39
2.1214237 -0.01099189 4.0615168 9.219563e-39
2.0792432 0.011040171 4.0793991 9.219563e-39
2.0913091 0.011026192 4.0742345 9.219563e-39
2.1093545 0.011005286 4.0665088 9.219563e-39
2.1213491 0.010991388 4.0613737 9.219563e-39
2.0791821 0.029439725 4.0792789 9.219563e-39
2.0912476 0.02940245 4.0741138 9.219563e-39
2.1092923 0.029346699 4.0663896 9.219563e-39
2.1212869 0.029309643 4.0612545 9.219563e-39
2.0791209 0.047838118 4.0791588 9.219563e-39
2.091186 0.047777552 4.0739946 9.219563e-39
2.1092305 0.047686961 4.0662699 9.219563e-39
2.1212249 0.047626752 4.0611358 9.219563e-39
2.0790472 0.06991481 4.0790148 9.219563e-39
2.0911124 0.06982629 4.0738506 9.219563e-39
2.1091564 0.069693908 4.0661268 9.219563e-39
2.12115 0.069605902 4.0609927 9.219563e-39
2.078974 0.091989942 4.0788708 9.219563e-39
2.0910387 0.091873474 4.0737066 9.219563e-39
2.109082 0.091699287 4.0659833 9.219563e-39
2.1210756 0.09158352 4.0608501 9.219563e-39
2.0789127 0.11038472 4.0787506 9.219563e-39
2.090977 0.11024498 4.0735874 9.219563e-39
2.10902 0.11003596 4.0658646 9.219563e-39
2.1210134 0.10989705 4.0607309 9.219563e-39
2.0788517 0.12877835 4.0786309 9.219563e-39
2.0909152 0.12861532 4.0734673 9.219563e-39
2.1089582 0.12837152 4.0657454 9.219563e-39
2.1209512 0.12820943 4.0606117 9.219563e-39
2.0787783 0.15084933 4.0784869 9.219563e-39
2.090842 0.15065835 4.0733237 9.219563e-39
2.1088841 0.15037277 4.0656018 9.219563e-39
2.1208766 0.15018292 4.0604692 9.219563e-39
2.078717 0.16924065 4.0783668 9.219563e-39
2.0916355 0.17058444 4.0728254 9.219563e-39
2.1088097 0.17237248 4.0654588 9.219563e-39
2.1208019 0.17215486 4.0603266 9.219563e-39
2.0786557 0.18763082 4.0782466 9.219563e-39
2.0899625 0.18832587 4.0734005 9.219563e-39
2.1087477 0.19070442 4.0653396 9.219563e-39
2.1207399 0.19046366 4.0602074 9.219563e-39
2.0785823 0.20969762 4.0781026 9.219563e-39
2.0906451 0.20943218 4.0729403 9.219563e-39
2.1086857 0.2090352 4.0652199 9.219563e-39
2.1206779 0.20877133 4.0600886 9.219563e-39
2.0785091 0.23176289 4.0779586 9.219563e-39
2.0905714 0.23146953 4.0727968 9.219563e-39
2.1086116 0.23103078 4.0650768 9.219563e-39
2.0784476 0.25014943 4.0778384 9.219563e-39
2.0905099 0.24983282 4.0726771 9.219563e-39
2.1085498 0.24935929 4.0649581 9.219563e-39
2.0783863 0.26853484 4.0777187 9.219563e-39
2.0904484 0.26819494 4.0725574 9.219563e-39
2.1084878 0.26768667 4.0648384 9.219563e-39
2.0783131 0.29059592 4.0775743 9.219563e-39
2.0903747 0.29022816 4.072413 9.219563e-39
2.1084139 0.28967807 4.0646954 9.219563e-39
2.0782521 0.30897903 4.0774546 9.219563e-39
2.0903008 0.31225976 4.0722699 9.219563e-39
2.1083395 0.31166798 4.0645523 9.219563e-39
2.0751815 0.32378733 4.0786514 1.0418106e-38
2.0902517 0.32694674 4.0721745 1.1155671e-38
2.10829 0.32632712 4.0644569 1.0418106e-38
2.0730197 -1.7663188 4.0961947 9.219563e-39
2.0896912 -1.7650805 4.0890474 9.219563e-39
2.1063056 -1.7638478 4.0819244 9.219563e-39
2.0722027 -1.7488561 4.0964055 9.219563e-39
2.091913 -1.7507918 4.0879827 9.219563e-39
2.106256 -1.7490772 4.0818286 9.219563e-39
2.0737693 -1.7306939 4.0955901 9.219563e-39
2.0910857 -1.7296662 4.0881691 9.219563e-39
2.1055837 -1.7285086 4.0819526 9.219563e-39
2.0728359 -1.7107388 4.0958314 9.219563e-39
2.0902591 -1.7085373 4.0883551 9.219563e-39
2.10673 -1.7105678 4.0813193 9.219563e-39
2.0727623 -1.6885095 4.0956864 9.219563e-39
2.0918193 -1.6904192 4.087543 9.219563e-39
2.1060574 -1.6900016 4.0814438 9.219563e-39
2.072701 -1.6699861 4.0955653 9.219563e-39
2.0908883 -1.6705006 4.0877829 9.219563e-39
2.1053853 -1.6694332 4.0815682 9.219563e-39
2.0726399 -1.6514642 4.0954442 9.219563e-39
2.0900617 -1.649371 4.0879688 9.219563e-39
2.1029074 -1.6499169 4.0824738 9.219563e-39
2.072566 -1.6292392 4.0952988 9.219563e-39
2.0916216 -1.6312665 4.0871568 9.219563e-39
2.1028454 -1.6314546 4.0823536 9.219563e-39
2.0716326 -1.6092775 4.0955396 9.219563e-39
2.0906911 -1.6113464 4.0873966 9.219563e-39
2.102771 -1.6093012 4.0822091 9.219563e-39
2.0731997 -1.5911475 4.0947251 9.219563e-39
2.0906172 -1.5891664 4.0872521 9.219563e-39
2.1027091 -1.5908412 4.0820885 9.219563e-39
2.0723703 -1.5699799 4.0949116 9.219563e-39
2.0896862 -1.5692416 4.0874925 9.219563e-39
2.1026473 -1.5723825 4.0819688 9.219563e-39
2.0692601 -1.5482521 4.0960703 9.219563e-39
2.0912466 -1.5511554 4.0866804 9.219563e-39
2.1025727 -1.5502332 4.0818238 9.219563e-39
2.0691972 -1.5297309 4.0959501 9.219563e-39
2.0904198 -1.5300274 4.0868664 9.219563e-39
2.1024985 -1.5280857 4.0816803 9.219563e-39
2.0599997 -1.5052421 4.0996928 9.219563e-39
2.0709591 -1.5109243 4.095046 9.219563e-39
2.0895934 -1.5088961 4.0870523 9.219563e-39
2.1024365 -1.5096304 4.0815601 9.219563e-39
2.0599508 -1.4904133 4.099596 9.219563e-39
2.0721009 -1.4885168 4.0943789 9.219563e-39
2.0911529 -1.4908234 4.0862412 9.219563e-39
2.1023746 -1.4911765 4.0814395 9.219563e-39
2.0598776 -1.4681715 4.0994506 9.219563e-39
2.0720396 -1.4700054 4.0942578 9.219563e-39
2.0902224 -1.4708998 4.0864811 9.219563e-39
2.1023004 -1.4690331 4.0812955 9.219563e-39
2.0598168 -1.4496377 4.099329 9.219563e-39
2.0719783 -1.4514951 4.0941372 9.219563e-39
2.0901484 -1.4487295 4.0863361 9.219563e-39
2.1022387 -1.4505814 4.0811753 9.219563e-39
2.059756 -1.4311051 4.0992079 9.219563e-39
2.0719049 -1.4292845 4.0939922 9.219563e-39
2.0892177 -1.4288009 4.0865765 9.219563e-39
2.1021767 -1.4321308 4.0810552 9.219563e-39
2.0596828 -1.4088675 4.0990624 9.219563e-39
2.0709717 -1.4093173 4.094233 9.219563e-39
2.0907779 -1.4107466 4.0857649 9.219563e-39
2.1021023 -1.4099916 4.0809102 9.219563e-39
2.0596218 -1.3903372 4.0989408 9.219563e-39
2.0725381 -1.391233 4.0934186 9.219563e-39
2.0899513 -1.3896171 4.0859509 9.219563e-39
2.1020279 -1.387854 4.0807667 9.219563e-39
2.059561 -1.3718081 4.0988197 9.219563e-39
2.0717094 -1.3700629 4.093605 9.219563e-39
2.0891252 -1.3684843 4.0861363 9.219563e-39
2.1019661 -1.3694071 4.0806465 9.219563e-39
2.0594878 -1.3495747 4.0986743 9.219563e-39
2.0708804 -1.3488896 4.0937915 9.219563e-39
2.0906844 -1.3504435 4.0853257 9.219563e-39
2.1019042 -1.3509612 4.0805264 9.219563e-39
2.059427 -1.331048 4.0985532 9.219563e-39
2.0724463 -1.330819 4.092978 9.219563e-39
2.0897541 -1.3305157 4.0855651 9.219563e-39
2.1018298 -1.3288277 4.0803819 9.219563e-39
2.059366 -1.3125224 4.0984321 9.219563e-39
2.0715132 -1.3108526 4.0932178 9.219563e-39
2.0896802 -1.3083557 4.0854206 9.219563e-39
2.101768 -1.3103843 4.0802622 9.219563e-39
2.059293 -1.2902931 4.0982862 9.219563e-39
2.0714397 -1.2886519 4.0930729 9.219563e-39
2.0896187 -1.2898901 4.0853004 9.219563e-39
2.1017063 -1.2919421 4.080142 9.219563e-39
2.0592198 -1.2680655 4.0981407 9.219563e-39
2.0713787 -1.2701522 4.0929523 9.219563e-39
2.0895569 -1.2714255 4.0851803 9.219563e-39
2.1016567 -1.2771889 4.0800457 9.219563e-39
2.0591588 -1.2495434 4.0980196 9.219563e-39
2.0713174 -1.2516538 4.0928316 9.219563e-39
2.089483 -1.2492697 4.0850353 9.219563e-39
2.059098 -1.2310228 4.0978985 9.219563e-39
2.0712442 -1.2294569 4.0926862 9.219563e-39
2.0885527 -1.2293358 4.0852752 9.219563e-39
2.059025 -1.2087994 4.097753 9.219563e-39
2.0703108 -1.2094847 4.0929275 9.219563e-39
2.0901124 -1.2113266 4.0844641 9.219563e-39
2.0589643 -1.1902809 4.0976324 9.219563e-39
2.0718772 -1.1914458 4.092113 9.219563e-39
2.0892859 -1.1901947 4.08465 9.219563e-39
2.058903 -1.1717637 4.0975108 9.219563e-39
2.0710485 -1.1702734 4.0922995 9.219563e-39
2.0884597 -1.1690595 4.0848355 9.219563e-39
2.0563912 -1.1483552 4.0984001 9.219563e-39
2.07022 -1.1490976 4.0924859 9.219563e-39
2.090019 -1.151064 4.0840254 9.219563e-39
2.0551109 -1.1292387 4.0987959 9.219563e-39
2.0717854 -1.1310724 4.0916719 9.219563e-39
2.0890892 -1.1311309 4.0842648 9.219563e-39
2.0562696 -1.1113174 4.0981579 9.219563e-39
2.0708525 -1.111101 4.0919127 9.219563e-39
2.089015 -1.1089849 4.0841198 9.219563e-39
2.0555928 -1.0906481 4.0982833 9.219563e-39
2.0707793 -1.0889142 4.0917678 9.219563e-39
2.0880847 -1.0890473 4.0843601 9.219563e-39
2.0555198 -1.0684274 4.0981374 9.219563e-39
2.0698464 -1.068938 4.0920086 9.219563e-39
2.0896442 -1.0710702 4.0835495 9.219563e-39
2.0554593 -1.0499115 4.0980167 9.219563e-39
2.0714123 -1.0509312 4.0911951 9.219563e-39
2.0888181 -1.0499367 4.0837355 9.219563e-39
2.0553985 -1.0313967 4.0978951 9.219563e-39
2.0705838 -1.029757 4.0913811 9.219563e-39
2.0879922 -1.0287998 4.0839205 9.219563e-39
2.0553255 -1.0091802 4.0977497 9.219563e-39
2.0697556 -1.0085797 4.0915675 9.219563e-39
2.0895507 -1.0108362 4.0831108 9.219563e-39
2.0552647 -0.99066776 4.0976286 9.219563e-39
2.0713208 -0.99058658 4.0907545 9.219563e-39
2.0886214 -0.99089938 4.0833502 9.219563e-39
2.0552039 -0.97215652 4.097508 9.219563e-39
2.0703878 -0.97061127 4.0909953 9.219563e-39
2.0885472 -0.96876323 4.0832062 9.219563e-39
2.055131 -0.94994426 4.097362 9.219563e-39
2.0703146 -0.94843453 4.0908494 9.219563e-39
2.088486 -0.9503178 4.0830855 9.219563e-39
2.0550582 -0.92773366 4.0972166 9.219563e-39
2.0702536 -0.92995501 4.0907288 9.219563e-39
2.0884242 -0.93187332 4.0829654 9.219563e-39
2.0549974 -0.90922594 4.0970955 9.219563e-39
2.0701926 -0.91147655 4.0906086 9.219563e-39
2.0883505 -0.9097414 4.0828214 9.219563e-39
2.0549366 -0.89071947 4.0969748 9.219563e-39
2.0701191 -0.88930386 4.0904636 9.219563e-39
2.0875247 -0.88860279 4.0830064 9.219563e-39
2.0548637 -0.86851311 4.0968289 9.219563e-39
2.0691864 -0.86932242 4.090704 9.219563e-39
2.0870147 -0.87149191 4.0830889 9.219563e-39
2.0548031 -0.85000896 4.0967083 9.219563e-39
2.0707521 -0.85136104 4.089891 9.219563e-39
2.0851338 -0.85100049 4.0837312 9.219563e-39
2.0547421 -0.83150595 4.0965867 9.219563e-39
2.0699236 -0.83018464 4.0900769 9.219563e-39
2.0850601 -0.8288672 4.0835862 9.219563e-39
2.0546696 -0.80930376 4.0964417 9.219563e-39
2.0698502 -0.80801773 4.0899329 9.219563e-39
2.0849986 -0.81042403 4.0834661 9.219563e-39
2.0546086 -0.79080307 4.0963206 9.219563e-39
2.0697892 -0.78954649 4.0898118 9.219563e-39
2.0849371 -0.79198194 4.0833459 9.219563e-39
2.0545478 -0.77230358 4.0961995 9.219563e-39
2.0697281 -0.77107644 4.0896912 9.219563e-39
2.0848634 -0.76985294 4.0832014 9.219563e-39
2.0521894 -0.74935901 4.0970268 9.219563e-39
2.0696549 -0.74891371 4.0895462 9.219563e-39
2.0847898 -0.74772543 4.0830574 9.219563e-39
2.0513585 -0.72814107 4.0972137 9.219563e-39
2.0695939 -0.73044592 4.0894256 9.219563e-39
2.0847282 -0.72928709 4.0829372 9.219563e-39
2.0512977 -0.70963931 4.0970926 9.219563e-39
2.0695329 -0.71197933 4.0893044 9.219563e-39
2.084667 -0.71084976 4.0828166 9.219563e-39
2.0512371 -0.69113874 4.0969715 9.219563e-39
2.0694597 -0.689821 4.08916 9.219563e-39
2.0845933 -0.68872648 4.0826721 9.219563e-39
2.0511644 -0.66893935 4.0968266 9.219563e-39
2.0686316 -0.66863954 4.0893459 9.219563e-39
2.0845318 -0.67029154 4.082552 9.219563e-39
2.0511038 -0.65044111 4.096705 9.219563e-39
2.0701964 -0.65072358 4.0885339 9.219563e-39
2.0844705 -0.65185779 4.0824318 9.219563e-39
2.0510433 -0.631944 4.0965843 9.219563e-39
2.0692642 -0.63073927 4.0887737 9.219563e-39
2.0843966 -0.62973863 4.0822873 9.219563e-39
2.0509703 -0.60974896 4.0964379 9.219563e-39
2.0691907 -0.60858655 4.0886288 9.219563e-39
2.0843229 -0.60762113 4.0821433 9.219563e-39
2.0501404 -0.58852631 4.0966253 9.219563e-39
2.0691299 -0.59012705 4.0885086 9.219563e-39
2.0842614 -0.58919096 4.0820227 9.219563e-39
2.0517116 -0.57059437 4.0958104 9.219563e-39
2.0690684 -0.5716688 4.088388 9.219563e-39
2.0842001 -0.57076192 4.081903 9.219563e-39
2.0507765 -0.55056965 4.0960512 9.219563e-39
2.0689955 -0.54952019 4.0882435 9.219563e-39
2.0841267 -0.54864854 4.081758 9.219563e-39
2.050704 -0.52838027 4.0959058 9.219563e-39
2.0680633 -0.52952951 4.0884829 9.219563e-39
2.0840652 -0.53022182 4.0816383 9.219563e-39
2.050643 -0.50989044 4.0957847 9.219563e-39
2.069628 -0.51164538 4.0876713 9.219563e-39
2.0840037 -0.51179636 4.0815177 9.219563e-39
2.0505826 -0.49140167 4.0956635 9.219563e-39
2.0688002 -0.49046502 4.0878572 9.219563e-39
2.0839303 -0.48968709 4.0813732 9.219563e-39
2.0505097 -0.4692165 4.0955181 9.219563e-39
2.0687268 -0.46832222 4.0877128 9.219563e-39
2.0808361 -0.46772775 4.0825238 9.219563e-39
2.0504491 -0.45073009 4.0953975 9.219563e-39
2.0686657 -0.44987106 4.0875916 9.219563e-39
2.0807743 -0.44929999 4.0824032 9.219563e-39
2.0503888 -0.43224478 4.0952764 9.219563e-39
2.0686047 -0.43142098 4.0874715 9.219563e-39
2.0807133 -0.43087339 4.0822835 9.219563e-39
2.0503156 -0.41006389 4.0951314 9.219563e-39
2.068532 -0.40928233 4.0873265 9.219563e-39
2.0806396 -0.4087629 4.0821385 9.219563e-39
2.0502431 -0.3878845 4.0949864 9.219563e-39
2.0675995 -0.38928795 4.0875669 9.219563e-39
2.0805783 -0.3903386 4.0820189 9.219563e-39
2.0501826 -0.36940286 4.0948653 9.219563e-39
2.0691643 -0.37143564 4.0867548 9.219563e-39
2.0805171 -0.37191549 4.0818992 9.219563e-39
2.037931 -0.34766883 4.0999374 9.219563e-39
2.0501218 -0.35092238 4.0947437 9.219563e-39
2.0683365 -0.35025364 4.0869412 9.219563e-39
2.0804434 -0.34980914 4.0817542 9.219563e-39
2.0378706 -0.32916608 4.0998158 9.219563e-39
2.0500495 -0.32874718 4.0945988 9.219563e-39
2.0682631 -0.32812077 4.0867963 9.219563e-39
2.0803702 -0.32770437 4.0816102 9.219563e-39
2.0378103 -0.31066442 4.0996952 9.219563e-39
2.049989 -0.31026909 4.0944781 9.219563e-39
2.0682023 -0.30967784 4.0866761 9.219563e-39
2.0803089 -0.30928487 4.0814896 9.219563e-39
2.0377502 -0.29216388 4.0995736 9.219563e-39
2.0499284 -0.29179209 4.0943575 9.219563e-39
2.0681415 -0.2912361 4.0865555 9.219563e-39
2.0802472 -0.29086649 4.0813694 9.219563e-39
2.0376778 -0.26996464 4.0994287 9.219563e-39
2.0498557 -0.26962113 4.0942121 9.219563e-39
2.0680685 -0.2691074 4.0864115 9.219563e-39
2.0801742 -0.26876593 4.0812259 9.219563e-39
2.0376055 -0.24776697 4.0992827 9.219563e-39
2.049026 -0.24839452 4.094399 9.219563e-39
2.0680072 -0.25066796 4.0862904 9.219563e-39
2.0801129 -0.25034988 4.0811052 9.219563e-39
2.0375452 -0.2292701 4.0991616 9.219563e-39
2.0505965 -0.23053995 4.0935845 9.219563e-39
2.0679464 -0.23222968 4.0861702 9.219563e-39
2.0800514 -0.23193501 4.0809855 9.219563e-39
2.0374849 -0.21077436 4.0990405 9.219563e-39
2.0496619 -0.2105062 4.0938249 9.219563e-39
2.0700719 -0.20938711 4.0850782 9.219563e-39
2.0800025 -0.21720381 4.0808892 9.219563e-39
2.0374126 -0.18858092 4.0988946 9.219563e-39
2.0495892 -0.18834098 4.0936799 9.219563e-39
2.0708263 -0.18792254 4.0845852 9.219563e-39
2.0373523 -0.17008752 4.0987735 9.219563e-39
2.0495288 -0.16987114 4.0935588 9.219563e-39
2.0707653 -0.16949373 4.0844646 9.219563e-39
2.0372922 -0.15159529 4.0986524 9.219563e-39
2.0494683 -0.15140244 4.0934381 9.219563e-39
2.0707042 -0.15106608 4.0843444 9.219563e-39
2.03722 -0.12940603 4.0985069 9.219563e-39
2.0493956 -0.12924141 4.0932932 9.219563e-39
2.0706308 -0.12895431 4.0841994 9.219563e-39
2.0371597 -0.11091615 4.0983858 9.219563e-39
2.0493352 -0.11077505 4.0931721 9.219563e-39
2.0705698 -0.11052897 4.0840793 9.219563e-39
2.0370996 -0.092427433 4.0982647 9.219563e-39
2.0492744 -0.092309862 4.093051 9.219563e-39
2.0705087 -0.0921048 4.0839586 9.219563e-39
2.0370271 -0.070242375 4.0981188 9.219563e-39
2.0492017 -0.070153028 4.092906 9.219563e-39
2.0674098 -0.070019394 4.0851097 9.219563e-39
2.0369546 -0.048058879 4.0979733 9.219563e-39
2.049129 -0.047997754 4.092761 9.219563e-39
2.0673366 -0.047906332 4.0849657 9.219563e-39
2.0368943 -0.029573806 4.0978522 9.219563e-39
2.0490687 -0.02953619 4.0926404 9.219563e-39
2.0672758 -0.029479936 4.0848451 9.219563e-39
2.036834 -0.0110899 4.0977311 9.219563e-39
2.0490081 -0.011075795 4.0925193 9.219563e-39
2.0672147 -0.011054698 4.0847244 9.219563e-39
2.036762 0.011089389 4.0975857 9.219563e-39
2.0489354 0.011075286 4.0923743 9.219563e-39
2.0671415 0.011054193 4.0845799 9.219563e-39
2.0367017 0.029570965 4.0974646 9.219563e-39
2.0488749 0.029533356 4.0922532 9.219563e-39
2.0670807 0.029477106 4.0844598 9.219563e-39
2.0341969 0.04954296 4.0983782 9.219563e-39
2.0488145 0.047990263 4.0921326 9.219563e-39
2.0670197 0.04789887 4.0843396 9.219563e-39
2.0335195 0.070248835 4.0985036 9.219563e-39
2.0487418 0.070137158 4.0919871 9.219563e-39
2.0669467 0.070003599 4.0841947 9.219563e-39
2.0334475 0.092429422 4.0983577 9.219563e-39
2.0486691 0.092282489 4.0918427 9.219563e-39
2.0668736 0.092106745 4.0840502 9.219563e-39
2.0333872 0.11091207 4.0982366 9.219563e-39
2.0486088 0.11073575 4.0917215 9.219563e-39
2.0668128 0.11052489 4.08393 9.219563e-39
2.0333271 0.12939356 4.0981154 9.219563e-39
2.0485482 0.12918787 4.0916004 9.219563e-39
2.066752 0.12894186 4.0838094 9.219563e-39
2.0332549 0.15156993 4.09797 9.219563e-39
2.0484757 0.15132901 4.0914555 9.219563e-39
2.0666788 0.15104085 4.0836654 9.219563e-39
2.0331948 0.17004909 4.0978489 9.219563e-39
2.0484152 0.16977878 4.0913348 9.219563e-39
2.0666177 0.16945553 4.0835447 9.219563e-39
2.0331347 0.18852709 4.0977273 9.219563e-39
2.0483546 0.18822742 4.0912142 9.219563e-39
2.0665567 0.18786903 4.0834246 9.219563e-39
2.0330625 0.21069926 4.0975819 9.219563e-39
2.0482819 0.21036437 4.0910692 9.219563e-39
2.0664837 0.20996384 4.0832801 9.219563e-39
2.0330024 0.22917491 4.0974607 9.219563e-39
2.0489726 0.23155841 4.0906048 9.219563e-39
2.0664108 0.23205709 4.0831356 9.219563e-39
2.0329421 0.24764942 4.0973401 9.219563e-39
2.0472856 0.24938557 4.0911856 9.219563e-39
2.0663497 0.25046697 4.083015 9.219563e-39
2.0328701 0.26981744 4.0971942 9.219563e-39
2.0480886 0.26938856 4.0906825 9.219563e-39
2.0662889 0.26887572 4.0828953 9.219563e-39
2.0327981 0.29198381 4.0970492 9.219563e-39
2.0480158 0.29151976 4.0905371 9.219563e-39
2.0662158 0.29096481 4.0827503 9.219563e-39
2.032738 0.31045467 4.0969276 9.219563e-39
2.0479555 0.30996132 4.0904169 9.219563e-39
2.066155 0.30937123 4.0826302 9.219563e-39
1.4699345 0.32788014 4.0837998 1.4290323e-38
1.4920269 0.32787752 4.0837674 1.4290323e-38
1.510437 0.32787535 4.0837402 1.4290323e-38
1.5288467 0.32787314 4.0837131 1.4290323e-38
1.5472565 0.32787099 4.0836864 1.4290323e-38
1.694524 0.32785356 4.0834694 1.4290323e-38
1.7092501 0.32785183 4.0834475 1.4290323e-38
1.7276572 0.32784966 4.0834203 1.4290323e-38
1.7497454 0.32784703 4.0833879 1.4290323e-38
1.7718334 0.32784441 4.0833549 1.4290323e-38
1.7902397 0.32784224 4.0833282 1.4290323e-38
1.8086457 0.32784006 4.0833011 1.4290323e-38
1.8307328 0.32783747 4.0832686 1.4290323e-38
1.8491384 0.32783529 4.0832415 1.4290323e-38
1.8675436 0.32783315 4.0832143 1.4290323e-38
1.8896297 0.32783049 4.0831819 1.4290323e-38
1.9117155 0.3278279 4.0831494 1.4290323e-38
1.9301198 0.3278257 4.0831223 1.4290323e-38
1.9485241 0.32782352 4.0830951 1.3737149e-38
1.9706088 0.32782093 4.0830626 1.2815193e-38
1.9890125 0.32781872 4.0830355 1.2907388e-38
2.0074158 0.32781658 4.0830083 1.2630801e-38
2.0307808 0.32530302 4.0885277 1.0879084e-38
2.0497515 0.32441851 4.0866437 1.0233715e-38
2.0640934 0.32293633 4.083405 9.957128e-39
2.0180833 -1.7802246 4.1198239 9.219563e-39
2.0180473 -1.7690434 4.11975 9.219563e-39
2.0303226 -1.7705036 4.1145072 9.219563e-39
2.0477979 -1.7693969 4.107017 9.219563e-39
2.0608654 -1.7685704 4.1014156 9.219563e-39
2.0179875 -1.7504091 4.119628 9.219563e-39
2.0294881 -1.7492404 4.1146951 9.219563e-39
2.0493739 -1.7511842 4.1061974 9.219563e-39
2.0608044 -1.750019 4.1012945 9.219563e-39
2.0179155 -1.7280493 4.1194816 9.219563e-39
2.0310702 -1.7309974 4.113873 9.219563e-39
2.0485413 -1.7299644 4.1063852 9.219563e-39
2.0607312 -1.7277585 4.1011486 9.219563e-39
2.0178554 -1.7094171 4.1193585 9.219563e-39
2.0301299 -1.7109532 4.1141157 9.219563e-39
2.0477092 -1.7087414 4.1065722 9.219563e-39
2.0606704 -1.7092094 4.1010275 9.219563e-39
2.0177956 -1.6907864 4.1192365 9.219563e-39
2.0300574 -1.6886247 4.1139698 9.219563e-39
2.0492845 -1.6905425 4.1057534 9.219563e-39
2.0606093 -1.6906615 4.1009064 9.219563e-39
2.0177236 -1.6684307 4.1190891 9.219563e-39
2.0299973 -1.6700187 4.1138473 9.219563e-39
2.0483472 -1.6705356 4.1059957 9.219563e-39
2.0605361 -1.6684054 4.1007605 9.219563e-39
2.0176635 -1.6498022 4.1189671 9.219563e-39
2.0299368 -1.6514139 4.1137252 9.219563e-39
2.0475149 -1.6493115 4.1061831 9.219563e-39
2.0604749 -1.6498597 4.1006389 9.219563e-39
2.0176036 -1.6311749 4.1188445 9.219563e-39
2.0298648 -1.6290896 4.1135788 9.219563e-39
2.0490901 -1.6311263 4.1053643 9.219563e-39
2.0604141 -1.6313154 4.1005177 9.219563e-39
2.0175314 -1.6088237 4.1186976 9.219563e-39
2.0289242 -1.6090389 4.113822 9.219563e-39
2.0481532 -1.6111175 4.1056066 9.219563e-39
2.0603409 -1.6090635 4.1003723 9.219563e-39
2.0174716 -1.5901985 4.1185751 9.219563e-39
2.0305068 -1.5908282 4.1129999 9.219563e-39
2.0480802 -1.5888387 4.1054602 9.219563e-39
2.0602801 -1.5905215 4.1002512 9.219563e-39
2.0174119 -1.5715748 4.1184525 9.219563e-39
2.0296717 -1.569566 4.1131878 9.219563e-39
2.0471425 -1.568825 4.1057024 9.219563e-39
2.060219 -1.5719805 4.1001296 9.219563e-39
2.0173397 -1.5492277 4.1183057 9.219563e-39
2.0287313 -1.5495136 4.113431 9.219563e-39
2.0487185 -1.5506582 4.1048832 9.219563e-39
2.0601702 -1.5571485 4.1000323 9.219563e-39
2.0172796 -1.5306064 4.1181831 9.219563e-39
2.030314 -1.5313165 4.1126089 9.219563e-39
2.0478861 -1.5294362 4.1050711 9.219563e-39
2.0172198 -1.5119861 4.1180611 9.219563e-39
2.029479 -1.5100536 4.1127977 9.219563e-39
2.0469487 -1.5094212 4.1053138 9.219563e-39
2.017148 -1.4896435 4.1179147 9.219563e-39
2.0286446 -1.4887873 4.1129856 9.219563e-39
2.0485244 -1.491268 4.1044946 9.219563e-39
2.0170879 -1.4710255 4.1177921 9.219563e-39
2.0302265 -1.4706041 4.112164 9.219563e-39
2.0476921 -1.4700453 4.104682 9.219563e-39
2.0170279 -1.4524088 4.1176696 9.219563e-39
2.0292864 -1.4505525 4.1124063 9.219563e-39
2.04686 -1.4488192 4.1048698 9.219563e-39
2.0169561 -1.4300703 4.1175227 9.219563e-39
2.0284522 -1.4292856 4.1125951 9.219563e-39
2.0484347 -1.4306794 4.1040511 9.219563e-39
2.0153427 -1.4060961 4.1180229 9.219563e-39
2.0300336 -1.4111158 4.1117735 9.219563e-39
2.0474977 -1.4106652 4.1042929 9.219563e-39
2.0137534 -1.389565 4.1185718 9.219563e-39
2.0290937 -1.3910626 4.1120167 9.219563e-39
2.0474253 -1.3884006 4.104147 9.219563e-39
2.0136936 -1.3709472 4.1184492 9.219563e-39
2.0290215 -1.368757 4.1118698 9.219563e-39
2.0473645 -1.3698483 4.1040254 9.219563e-39
2.0136216 -1.3486072 4.1183028 9.219563e-39
2.0289614 -1.3501701 4.1117477 9.219563e-39
2.0473039 -1.3512969 4.1039042 9.219563e-39
2.0135617 -1.3299919 4.1181798 9.219563e-39
2.0289011 -1.3315845 4.1116261 9.219563e-39
2.047231 -1.3290364 4.1037588 9.219563e-39
2.0135021 -1.3113776 4.1180577 9.219563e-39
2.0288289 -1.3092828 4.1114793 9.219563e-39
2.0462937 -1.3090159 4.1040006 9.219563e-39
2.0134304 -1.289042 4.1179109 9.219563e-39
2.0278888 -1.2892236 4.1117225 9.219563e-39
2.0478692 -1.2909083 4.1031823 9.219563e-39
2.0133705 -1.2704301 4.1177883 9.219563e-39
2.0294709 -1.2710859 4.1109009 9.219563e-39
2.0470371 -1.2696834 4.1033692 9.219563e-39
2.0133107 -1.2518195 4.1176662 9.219563e-39
2.0286362 -1.2498199 4.1110897 9.219563e-39
2.0462053 -1.2484548 4.1035566 9.219563e-39
2.0132389 -1.229488 4.1175194 9.219563e-39
2.0278022 -1.2285507 4.1112771 9.219563e-39
2.04778 -1.230361 4.1027389 9.219563e-39
2.012558 -1.2087234 4.1176462 9.219563e-39
2.0293832 -1.2104267 4.1104569 9.219563e-39
2.0468431 -1.2103413 4.1029806 9.219563e-39
2.0137286 -1.1907072 4.1170015 9.219563e-39
2.0284436 -1.1903682 4.1106992 9.219563e-39
2.0460114 -1.1891123 4.103168 9.219563e-39
2.0130475 -1.1699454 4.1171279 9.219563e-39
2.0276096 -1.1690984 4.1108871 9.219563e-39
2.047586 -1.171032 4.1023502 9.219563e-39
2.0123665 -1.149181 4.1172543 9.219563e-39
2.0291908 -1.150988 4.1100659 9.219563e-39
2.0449111 -1.1522791 4.1033463 9.219563e-39
2.0135372 -1.1311756 4.1166101 9.219563e-39
2.0282512 -1.130928 4.1103091 9.219563e-39
2.0435288 -1.1291245 4.103754 9.219563e-39
2.012856 -1.1104139 4.1167369 9.219563e-39
