# .PCD v0.7 - Point Cloud Data file format
VERSION 0.7
FIELDS x y z rgb
SIZE 4 4 4 4
TYPE F F F F
COUNT 1 1 1 1
WIDTH 1041
HEIGHT 1
VIEWPOINT 0 0 0 1 0 0 0
POINTS 1041
DATA ascii
1.0702767 -1.7102739 4.0081496 4.1488033e-39
1.0879585 -1.7096503 4.0066872 4.1488033e-39
1.1091599 -1.7089025 4.0049353 4.1488033e-39
1.130343 -1.7081554 4.0031843 4.1488033e-39
1.1506282 -1.7083452 4.0015149 4.1488033e-39
1.1656158 -1.7105323 4.0002975 4.1488033e-39
-1.9041344 -1.6884649 4.0113211 9.219563e-39
0.93328732 -1.6889102 4.0192637 4.1488033e-39
0.95036334 -1.6912266 4.0178752 4.1488033e-39
0.96742398 -1.6920875 4.0164771 4.1488033e-39
0.98873013 -1.6913456 4.0147157 4.1488033e-39
1.0100176 -1.6906042 4.0129561 4.1488033e-39
1.0312866 -1.6898636 4.011198 4.1488033e-39
1.0525366 -1.6891236 4.0094419 4.1488033e-39
1.0702314 -1.6885074 4.0079789 4.1488033e-39
1.0879122 -1.6878917 4.0065174 4.1488033e-39
1.1081084 -1.6892596 4.0048647 4.1488033e-39
1.1303031 -1.6900392 4.0030427 4.1488033e-39
1.1524776 -1.6908171 4.0012221 4.1488033e-39
1.1655747 -1.6924289 4.0001564 4.1488033e-39
-2.0915439 -1.6725127 4.0043106 3.9644121e-39
-2.0698721 -1.6725146 4.0043149 2.8580645e-39
-2.0482004 -1.6725165 4.0043201 2.8580645e-39
-2.0301406 -1.672518 4.004324 2.8580645e-39
-2.0120807 -1.6725196 4.0043273 2.8580645e-39
-1.9904089 -1.6725215 4.0043321 2.8580645e-39
-1.9687368 -1.6725231 4.0043368 2.8580645e-39
-1.9506768 -1.6725247 4.0043402 2.8580645e-39
-1.9326168 -1.6725265 4.0043445 2.8580645e-39
-1.9092884 -1.6742524 4.0084763 5.0707596e-39
0.93183243 -1.6714987 4.0192442 4.1488033e-39
0.94961452 -1.6708874 4.0177746 4.1488033e-39
0.96738285 -1.6702765 4.0163059 4.1488033e-39
0.98868805 -1.6695442 4.014545 4.1488033e-39
1.0099747 -1.6688123 4.0127854 4.1488033e-39
1.0312426 -1.6680814 4.0110278 4.1488033e-39
1.0516088 -1.6682884 4.0093517 4.1488033e-39
1.0701935 -1.6703701 4.0078373 4.1488033e-39
1.0878738 -1.6697608 4.0063758 4.1488033e-39
1.1099627 -1.6717184 4.0045719 4.1488033e-39
1.1302632 -1.6719239 4.0029011 4.1488033e-39
1.1514262 -1.6711934 4.001152 4.1488033e-39
1.1655418 -1.6779472 4.0000434 4.1488033e-39
0.9317928 -1.6496735 4.019073 4.1488033e-39
0.94957405 -1.6490703 4.0176034 4.1488033e-39
0.96734154 -1.6484674 4.0161352 4.1488033e-39
0.98864609 -1.6477447 4.0143743 4.1488033e-39
1.0099388 -1.6506538 4.0126433 4.1488033e-39
1.0312061 -1.649931 4.0108852 4.1488033e-39
1.0534693 -1.6507289 4.009058 4.1488033e-39
1.0701556 -1.652234 4.0076957 4.1488033e-39
1.0878354 -1.6516317 4.0062342 4.1488033e-39
1.1090344 -1.6509093 4.0044818 4.1488033e-39
1.1302152 -1.6501875 4.0027313 4.1488033e-39
1.1513774 -1.6494665 4.0009823 4.1488033e-39
0.93175304 -1.6278501 4.0189018 4.1488033e-39
0.94882548 -1.6287329 4.0175028 4.1488033e-39
0.96730733 -1.6302944 4.0159926 4.1488033e-39
0.98861098 -1.6295797 4.0142317 4.1488033e-39
1.0099031 -1.6324968 4.0125012 4.1488033e-39
1.0311694 -1.6317817 4.0107436 4.1488033e-39
1.0524173 -1.6310672 4.0089874 4.1488033e-39
1.0701103 -1.6304723 4.0075254 4.1488033e-39
1.0877891 -1.6298779 4.0060644 4.1488033e-39
1.1089876 -1.6291652 4.004312 4.1488033e-39
1.1301674 -1.628453 4.002562 4.1488033e-39
1.1513286 -1.6277415 4.000813 4.1488033e-39
0.91748774 -1.6101365 4.0199356 4.1488033e-39
0.93172002 -1.6096654 4.0187593 4.1488033e-39
0.95021504 -1.6112344 4.0172486 4.1488033e-39
0.96727306 -1.612123 4.0158501 4.1488033e-39
0.98857594 -1.6114161 4.0140896 4.1488033e-39
1.0098603 -1.6107101 4.012331 4.1488033e-39
1.0311257 -1.6100043 4.0105724 4.1488033e-39
1.0523727 -1.6092997 4.0088172 4.1488033e-39
1.0700647 -1.6087128 4.0073552 4.1488033e-39
1.087743 -1.6081262 4.0058937 4.1488033e-39
1.1080596 -1.6083579 4.0042224 4.1488033e-39
1.1301274 -1.6103424 4.0024204 4.1488033e-39
1.1512879 -1.6096386 4.0006719 4.1488033e-39
0.91745514 -1.5919479 4.019793 4.1488033e-39
0.93168706 -1.5914822 4.0186167 4.1488033e-39
0.94946641 -1.5909003 4.0171471 4.1488033e-39
0.96723199 -1.5903188 4.0156794 4.1488033e-39
0.98853397 -1.5896217 4.0139189 4.1488033e-39
1.0098172 -1.5889249 4.0121598 4.1488033e-39
1.0310818 -1.5882291 4.0104032 4.1488033e-39
1.052328 -1.5875337 4.008647 4.1488033e-39
1.0700269 -1.5905809 4.0072136 4.1488033e-39
1.0877045 -1.590001 4.0057526 4.1488033e-39
1.1099136 -1.5908253 4.0039296 4.1488033e-39
1.1300874 -1.5922329 4.0022788 4.1488033e-39
1.1492354 -1.5926377 4.0007048 4.1488033e-39
0.9174161 -1.5701232 4.0196218 4.1488033e-39
0.9316473 -1.5696639 4.018446 4.1488033e-39
0.94942594 -1.56909 4.0169768 4.1488033e-39
0.96719062 -1.5685163 4.0155087 4.1488033e-39
0.98849177 -1.5678289 4.0137482 4.1488033e-39
1.0087655 -1.5692489 4.0120897 4.1488033e-39
1.0310456 -1.5700842 4.0102611 4.1488033e-39
1.0522908 -1.569397 4.0085053 4.1488033e-39
1.0699891 -1.5724505 4.0070715 4.1488033e-39
1.087666 -1.5718771 4.0056105 4.1488033e-39
1.1088622 -1.57119 4.003859 4.1488033e-39
1.1300395 -1.5705034 4.0021095 4.1488033e-39
1.1476737 -1.5699315 4.0006518 4.1488033e-39
0.9155941 -1.5465384 4.0195837 4.1488033e-39
0.93160766 -1.5478474 4.0182748 4.1488033e-39
0.94867736 -1.5487578 4.0168757 4.1488033e-39
0.96715641 -1.5503492 4.0153661 4.1488033e-39
0.98845673 -1.5496696 4.0136061 4.1488033e-39
1.0106302 -1.5516849 4.0117955 4.1488033e-39
1.031009 -1.5519408 4.0101185 4.1488033e-39
1.0522536 -1.5512615 4.0083632 4.1488033e-39
1.0699435 -1.5506958 4.0069013 4.1488033e-39
1.08762 -1.5501304 4.0054412 4.1488033e-39
1.1088151 -1.5494525 4.0036893 4.1488033e-39
1.1299917 -1.5487754 4.0019398 4.1488033e-39
1.147625 -1.5482117 4.0004826 4.1488033e-39
0.91378516 -1.5302279 4.0196018 4.1488033e-39
0.93157452 -1.5296685 4.0181322 4.1488033e-39
0.95006675 -1.5312674 4.0166216 4.1488033e-39
0.96712208 -1.5321835 4.015224 4.1488033e-39
0.98842186 -1.5315118 4.0134635 4.1488033e-39
1.0097028 -1.5308408 4.0117054 4.1488033e-39
1.0309651 -1.5301704 4.0099487 4.1488033e-39
1.0522088 -1.5295005 4.008193 4.1488033e-39
1.0698982 -1.5289429 4.0067315 4.1488033e-39
1.0875738 -1.5283855 4.0052705 4.1488033e-39
1.108768 -1.5277171 4.0035195 4.1488033e-39
1.1289403 -1.5291501 4.0018692 4.1488033e-39
1.1475844 -1.5301131 4.0003414 4.1488033e-39
0.91375273 -1.5120436 4.0194592 4.1488033e-39
0.93154168 -1.5114908 4.0179901 4.1488033e-39
0.95287144 -1.5108278 4.0162272 4.1488033e-39
0.97063249 -1.5102757 4.0147595 4.1488033e-39
0.98837978 -1.5097241 4.0132928 4.1488033e-39
1.0096598 -1.5090626 4.0115347 4.1488033e-39
1.0309213 -1.5084016 4.009778 4.1488033e-39
1.0521642 -1.5077415 4.0080228 4.1488033e-39
1.0691487 -1.5086635 4.0066309 4.1488033e-39
1.0875354 -1.5102659 4.0051293 4.1488033e-39
1.1087289 -1.5096058 4.0033784 4.1488033e-39
1.1307918 -1.5116338 4.0015769 4.1488033e-39
1.1440189 -1.5121261 4.0004916 4.1488033e-39
0.91371387 -1.4902242 4.0192885 4.1488033e-39
0.93150181 -1.4896793 4.0178185 4.1488033e-39
0.95283085 -1.489026 4.0160561 4.1488033e-39
0.97059125 -1.4884819 4.0145888 4.1488033e-39
0.98833776 -1.4879383 4.0131221 4.1488033e-39
1.0087324 -1.4882206 4.0114446 4.1488033e-39
1.0308847 -1.4902625 4.0096359 4.1488033e-39
1.052127 -1.4896103 4.0078807 4.1488033e-39
1.0705268 -1.4912201 4.0063782 4.1488033e-39
1.0874969 -1.4921479 4.0049872 4.1488033e-39
1.1086897 -1.4914954 4.0032363 4.1488033e-39
1.129864 -1.4908438 4.0014868 4.1488033e-39
1.1439705 -1.4904095 4.0003219 4.1488033e-39
0.91154444 -1.47138 4.0193167 4.1488033e-39
0.93146878 -1.4715046 4.0176759 4.1488033e-39
0.95279711 -1.4708591 4.015914 4.1488033e-39
0.9705568 -1.4703215 4.0144463 4.1488033e-39
0.98830271 -1.4697846 4.0129805 4.1488033e-39
1.0105971 -1.4706651 4.0111508 4.1488033e-39
1.0308483 -1.4721247 4.0094938 4.1488033e-39
1.0520897 -1.4714804 4.0077386 4.1488033e-39
1.0697771 -1.470944 4.0062776 4.1488033e-39
1.0864456 -1.4725085 4.0049171 4.1488033e-39
1.1086504 -1.4733866 4.0030951 4.1488033e-39
1.129824 -1.4727429 4.0013461 4.1488033e-39
1.1439301 -1.4723139 4.0001802 4.1488033e-39
-1.9024477 -1.7423948 4.0322776 9.219563e-39
0.69238591 -1.7455419 4.0395608 4.1488033e-39
0.71034503 -1.7449003 4.0380764 4.1488033e-39
0.731879 -1.7441314 4.0362964 4.1488033e-39
0.74980998 -1.7434907 4.0348139 4.1488033e-39
0.7677269 -1.7428508 4.0333328 4.1488033e-39
0.78921032 -1.7420835 4.0315571 4.1488033e-39
0.81067491 -1.7413167 4.0297828 4.1488033e-39
0.8321206 -1.7405506 4.0280099 4.0566077e-39
0.84640789 -1.7400403 4.0268288 3.8722165e-39
-1.9024383 -1.727836 4.0322576 9.219563e-39
0.69236612 -1.7309161 4.0394454 4.1488033e-39
0.7103247 -1.73028 4.0379615 4.1488033e-39
0.73185813 -1.7295175 4.036181 4.1488033e-39
0.74978858 -1.7288822 4.034699 4.1488033e-39
0.76770508 -1.7282475 4.0332179 4.1488033e-39
0.78829461 -1.7284304 4.0315237 4.1488033e-39
0.81065756 -1.7303739 4.029696 4.1488033e-39
0.83210278 -1.7296127 4.0279236 3.9644121e-39
0.85067749 -1.7311401 4.0264063 3.8722165e-39
0.86780912 -1.7319889 4.025001 3.8722165e-39
0.88920432 -1.7312278 4.0232334 4.0566077e-39
0.91058064 -1.7304676 4.0214663 4.1488033e-39
0.92482185 -1.729961 4.0202889 4.1488033e-39
-1.9024268 -1.7096379 4.0322332 9.219563e-39
0.69233656 -1.7089788 4.0392728 4.1488033e-39
0.71029443 -1.7083508 4.0377889 4.1488033e-39
0.73182684 -1.7075976 4.0360088 4.1488033e-39
0.74976182 -1.7106224 4.0345554 4.1488033e-39
0.76767772 -1.7099944 4.0330744 4.1488033e-39
0.79018468 -1.7107693 4.0312262 4.1488033e-39
0.81062877 -1.7121367 4.0295529 4.0566077e-39
0.83207321 -1.7113835 4.0277805 3.8722165e-39
0.84992963 -1.7107563 4.0263047 3.8722165e-39
0.86777204 -1.7101296 4.0248294 3.8722165e-39
0.88916641 -1.7093785 4.0230618 4.0566077e-39
0.91054183 -1.7086278 4.0212951 4.1488033e-39
0.92478245 -1.7081276 4.0201178 4.1488033e-39
-1.9024158 -1.6914402 4.0322094 9.219563e-39
0.68871498 -1.6883856 4.0394063 4.1488033e-39
0.71026897 -1.6900778 4.0376444 4.1488033e-39
0.73180079 -1.6893328 4.0358644 4.1488033e-39
0.74973512 -1.6923641 4.0344114 4.1488033e-39
0.76765037 -1.691743 4.0329304 4.1488033e-39
0.7891317 -1.690998 4.0311551 4.1488033e-39
0.81059414 -1.6902539 4.0293808 3.9644121e-39
0.83203769 -1.6895103 4.0276089 3.8722165e-39
0.84989339 -1.6888913 4.0261331 3.8722165e-39
0.86773509 -1.6882727 4.0246582 3.9644121e-39
0.88912845 -1.687531 4.0228901 4.0566077e-39
0.91050959 -1.6904293 4.021152 4.1488033e-39
0.92475623 -1.6935732 4.0200038 4.1488033e-39
-2.1012917 -1.6723065 4.0299482 1.1247867e-38
-2.0883651 -1.6722939 4.0316696 2.8580645e-39
-2.0705972 -1.672323 4.0282354 2.8580645e-39
-2.0504005 -1.6723109 4.0299592 2.8580645e-39
-2.02859 -1.6723127 4.029963 2.8580645e-39
-2.0083592 -1.6723009 4.0316868 2.8580645e-39
-1.990659 -1.6723299 4.0282526 2.8580645e-39
-1.9704281 -1.672318 4.0299754 2.8580645e-39
-1.9486175 -1.6723199 4.0299802 2.8580645e-39
-1.9304419 -1.6723214 4.029984 2.8580645e-39
-1.9108578 -1.6729745 4.0303025 3.226847e-39
0.69014752 -1.6754488 4.0392585 3.6878252e-39
0.71038562 -1.6757817 4.0383058 3.6878252e-39
0.73208266 -1.6754127 4.0374174 3.5956296e-39
0.75015652 -1.675105 4.0366778 3.5956296e-39
0.76822329 -1.6747977 4.0359397 3.5034339e-39
0.78989512 -1.6744293 4.0350537 3.5034339e-39
0.81155753 -1.6740613 4.0341682 3.3190427e-39
0.8315137 -1.6739404 4.0321259 3.3190427e-39
0.8493371 -1.6732013 4.0338531 3.1346514e-39
0.86927789 -1.6730813 4.0318117 3.226847e-39
0.88967323 -1.6704149 4.0253763 3.6878252e-39
0.91047722 -1.6722324 4.0210094 4.1488033e-39
0.89262921 -1.6510019 4.0223098 3.9644121e-39
0.91043842 -1.6503977 4.0208378 4.1488033e-39
0.89259118 -1.6291609 4.0221381 3.9644121e-39
0.91039968 -1.628565 4.0206666 4.1488033e-39
0.8918432 -1.6088012 4.0220375 3.8722165e-39
0.90680712 -1.61049 4.0208182 4.1488033e-39
0.89323789 -1.5912845 4.0217829 3.8722165e-39
0.906775 -1.5922976 4.0206757 4.1488033e-39
0.89248985 -1.5709277 4.0216818 3.7800208e-39
0.90673637 -1.5704679 4.020504 4.1488033e-39
0.89245176 -1.5490937 4.0215101 3.7800208e-39
0.90598822 -1.5501179 4.0204034 4.1488033e-39
0.8917039 -1.5287392 4.021409 3.6878252e-39
0.90310526 -1.5305638 4.0204844 4.1488033e-39
0.89309835 -1.5112302 4.0211539 3.7800208e-39
0.90307325 -1.5123757 4.0203419 4.1488033e-39
0.89235044 -1.4908786 4.0210533 3.7800208e-39
0.90303475 -1.4905514 4.0201707 4.1488033e-39
0.89231873 -1.4726892 4.0209103 3.7800208e-39
0.90300906 -1.4760027 4.0200562 4.1488033e-39
-1.9008197 -1.7472975 4.052083 9.219563e-39
0.45407325 -1.7503802 4.0592318 4.1488033e-39
0.4722077 -1.7497338 4.0577321 4.1488033e-39
0.49032974 -1.7490877 4.0562344 4.1488033e-39
0.50843745 -1.7484422 4.0547376 4.1488033e-39
0.5301497 -1.7476683 4.0529428 4.1488033e-39
0.55184269 -1.746895 4.0511498 4.1488033e-39
0.569906 -1.7462511 4.0496564 4.1488033e-39
0.58795506 -1.7456079 4.0481644 4.1488033e-39
0.60959691 -1.7448363 4.0463758 4.1488033e-39
0.63121969 -1.7440656 4.0445881 4.1488033e-39
0.64922911 -1.7470837 4.0431285 4.1488033e-39
0.66721994 -1.7464409 4.0416412 4.1488033e-39
0.68160409 -1.7459271 4.040452 4.1488033e-39
-1.9007003 -1.7310364 4.0533867 9.219563e-39
0.45133442 -1.7311857 4.0593033 4.1488033e-39
0.4721908 -1.731369 4.0575867 4.1488033e-39
0.49031219 -1.7307299 4.0560894 4.1488033e-39
0.50841928 -1.7300912 4.0545921 4.1488033e-39
0.53013068 -1.7293254 4.0527973 4.1488033e-39
0.5518229 -1.7285602 4.0510044 4.1488033e-39
0.56988555 -1.727923 4.0495119 4.1488033e-39
0.58690542 -1.7294165 4.0481219 4.1488033e-39
0.6095795 -1.7301856 4.0462599 4.1488033e-39
0.63120168 -1.7294216 4.0444722 4.1488033e-39
0.65075159 -1.7313448 4.0428777 4.1488033e-39
0.66810131 -1.7326903 4.0414586 4.1488033e-39
0.68158466 -1.731298 4.0403366 4.1488033e-39
-1.9007965 -1.7107162 4.0520334 9.219563e-39
0.45040861 -1.7100909 4.0592113 4.1488033e-39
0.4721705 -1.7093329 4.0574121 4.1488033e-39
0.49029112 -1.7087022 4.0559149 4.1488033e-39
0.5083974 -1.7080714 4.0544181 4.1488033e-39
0.5290767 -1.7094473 4.0527258 4.1488033e-39
0.55180317 -1.7102267 4.0508599 4.1488033e-39
0.56986517 -1.7095964 4.0493665 4.1488033e-39
0.58881825 -1.7116828 4.047822 4.1488033e-39
0.60955769 -1.7118738 4.0461154 4.1488033e-39
0.63117909 -1.7111177 4.0443277 4.1488033e-39
0.65278137 -1.710362 4.0425425 4.1488033e-39
0.67076916 -1.7097329 4.0410557 4.1488033e-39
0.68155551 -1.7093558 4.040164 4.1488033e-39
-1.9007831 -1.6887718 4.0520048 9.219563e-39
0.45038927 -1.6880471 4.0590367 4.1488033e-39
0.4711163 -1.689433 4.0573401 4.1488033e-39
0.49027354 -1.690347 4.0557694 4.1488033e-39
0.50837928 -1.6897234 4.0542727 4.1488033e-39
0.53099608 -1.6916952 4.0524254 4.1488033e-39
0.55178344 -1.6918945 4.0507145 4.1488033e-39
0.56984478 -1.6912709 4.049222 4.1488033e-39
0.587892 -1.6906481 4.04773 4.1488033e-39
0.60953158 -1.6899009 4.0459414 4.1488033e-39
0.63115203 -1.6891545 4.0441542 4.1488033e-39
0.65275341 -1.6884086 4.0423689 4.1488033e-39
0.67074037 -1.6877879 4.0408821 4.1488033e-39
0.68153602 -1.6947286 4.0400486 4.1488033e-39
-2.0892103 -1.6721001 4.0558834 5.0707596e-39
-2.0709183 -1.6721017 4.0558872 2.8580645e-39
-2.0526257 -1.6721033 4.055891 2.8580645e-39
-2.0306747 -1.6721052 4.0558953 2.8580645e-39
-2.008724 -1.6721071 4.0559006 2.8580645e-39
-1.9904314 -1.6721087 4.0559044 2.8580645e-39
-1.9721389 -1.6721104 4.0559082 2.8580645e-39
-1.9501878 -1.6721123 4.055913 2.8580645e-39
-1.9282366 -1.6721143 4.0559173 2.8580645e-39
-1.905359 -1.6731291 4.0539532 4.4253902e-39
0.45037636 -1.6733522 4.0589204 3.6878252e-39
0.47358951 -1.6754986 4.057025 3.6878252e-39
0.49030387 -1.6758149 4.0560193 3.7800208e-39
0.50850493 -1.6755056 4.0552726 3.6878252e-39
0.53033769 -1.675135 4.0543771 3.5956296e-39
0.55216086 -1.6747646 4.0534825 3.5956296e-39
0.57033974 -1.6744561 4.0527382 3.5034339e-39
0.58851153 -1.674148 4.0519938 3.5034339e-39
0.61030918 -1.6737784 4.0511012 3.4112383e-39
0.63044095 -1.6736298 4.048975 3.4112383e-39
0.65021658 -1.67304 4.0493183 3.3190427e-39
0.67008144 -1.6726481 4.050139 3.0424558e-39
0.69161147 -1.6723093 4.0563903 2.8580645e-39
0.7099086 -1.6723104 4.0563936 2.8580645e-39
0.72820568 -1.6723118 4.0563965 2.8580645e-39
0.75016242 -1.6723132 4.0563998 2.8580645e-39
0.77211905 -1.6723146 4.0564036 2.8580645e-39
0.79041636 -1.6723161 4.056407 2.8580645e-39
0.80871361 -1.6723171 4.0564103 2.8580645e-39
0.83067036 -1.6723188 4.0564137 2.8580645e-39
0.85262728 -1.6723204 4.0564179 2.8580645e-39
0.87092459 -1.6723216 4.0564203 2.8580645e-39
0.88390291 -1.6692014 4.048852 2.8580645e-39
0.88591987 -1.6515297 4.0413604 2.8580645e-39
0.8859455 -1.6297022 4.0414772 2.8580645e-39
0.88597113 -1.6078736 4.041594 2.8580645e-39
0.88599253 -1.5896821 4.0416918 2.8580645e-39
0.88601393 -1.5714897 4.0417886 2.8580645e-39
0.88603956 -1.5496575 4.0419059 2.8580645e-39
0.88606519 -1.5278243 4.0420227 2.8580645e-39
0.88608652 -1.5096289 4.04212 2.8580645e-39
0.88610792 -1.4914327 4.0422177 2.8580645e-39
0.88612503 -1.4768751 4.0422959 2.8580645e-39
0.2134313 -1.7626503 4.0791531 4.1488033e-39
0.2317441 -1.7619963 4.0776391 4.1488033e-39
0.2500442 -1.7613425 4.0761271 4.1488033e-39
0.26832977 -1.7606894 4.0746155 4.1488033e-39
0.28294963 -1.7601671 4.0734067 4.1488033e-39
-1.8991776 -1.7522392 4.072062 9.219563e-39
0.21067633 -1.7470547 4.0792556 4.1488033e-39
0.23069227 -1.7493782 4.0776253 4.1488033e-39
0.25003877 -1.7502733 4.0760388 4.1488033e-39
0.26832399 -1.7496243 4.0745273 4.1488033e-39
0.29116371 -1.7515785 4.0726614 4.1488033e-39
0.31215659 -1.7517538 4.0709333 4.1488033e-39
0.33039686 -1.7511048 4.0694256 4.1488033e-39
0.34862265 -1.7504563 4.0679188 4.1488033e-39
0.37047642 -1.7496791 4.066113 4.1488033e-39
0.39231074 -1.7489027 4.0643077 4.1488033e-39
0.41049162 -1.7482557 4.0628047 4.1488033e-39
0.42775106 -1.7485608 4.0613852 4.1488033e-39
0.44318604 -1.7507682 4.0601315 4.1488033e-39
-1.8991636 -1.7301859 4.0720325 9.219563e-39
0.20975296 -1.7295479 4.0791917 4.1488033e-39
0.23264563 -1.7315137 4.0773215 4.1488033e-39
0.25002977 -1.7318259 4.075892 4.1488033e-39
0.26831433 -1.7311835 4.0743809 4.1488033e-39
0.29023853 -1.7304136 4.0725689 4.1488033e-39
0.31214318 -1.7296443 4.0707574 4.1488033e-39
0.33038262 -1.7290039 4.0692501 4.1488033e-39
0.34860766 -1.7283636 4.0677433 4.1488033e-39
0.36955103 -1.7285482 4.06602 4.1488033e-39
0.39229667 -1.7305082 4.0641618 4.1488033e-39
0.41047689 -1.7298682 4.0626588 4.1488033e-39
0.42968181 -1.7307674 4.0610838 4.1488033e-39
0.44317654 -1.7397426 4.0600443 4.1488033e-39
-1.8991495 -1.7081327 4.0720024 9.219563e-39
0.20974539 -1.7110868 4.0790448 4.1488033e-39
0.23172069 -1.7103248 4.0772281 4.1488033e-39
0.25001898 -1.7096906 4.0757165 4.1488033e-39
0.2683028 -1.7090564 4.0742044 4.1488033e-39
0.29022595 -1.7082963 4.0723925 4.1488033e-39
0.31121802 -1.7084895 4.0706649 4.1488033e-39
0.33037072 -1.7105877 4.0691042 4.1488033e-39
0.34859514 -1.7099544 4.0675979 4.1488033e-39
0.37148836 -1.7107359 4.0657182 4.1488033e-39
0.39228258 -1.7121149 4.0640159 4.1488033e-39
0.41046217 -1.711482 4.0625134 4.1488033e-39
0.42862746 -1.7108493 4.0610118 4.1488033e-39
-1.8991382 -1.6897554 4.0719776 9.219563e-39
0.20973632 -1.6889353 4.0788684 4.1488033e-39
0.2317107 -1.6881832 4.0770516 4.1488033e-39
0.2500082 -1.6875572 4.0755401 4.1488033e-39
0.26829311 -1.6906186 4.0740581 4.1488033e-39
0.29021552 -1.6898667 4.0722461 4.1488033e-39
0.31316191 -1.6906586 4.0703621 4.1488033e-39
0.33035883 -1.6921729 4.0689578 4.1488033e-39
0.3485826 -1.6915466 4.0674515 4.1488033e-39
0.37043384 -1.6907953 4.0656452 4.1488033e-39
0.39226568 -1.6900449 4.0638409 4.1488033e-39
0.41044453 -1.6894199 4.0623384 4.1488033e-39
0.42860901 -1.6887957 4.0608368 4.1488033e-39
-2.0908687 -1.6719602 4.0733705 5.0707596e-39
-2.0688236 -1.6719621 4.0733752 2.8580645e-39
-2.050452 -1.6719637 4.0733786 2.8580645e-39
-2.0320807 -1.6719651 4.0733829 2.8580645e-39
-2.0100353 -1.6719671 4.0733871 2.8580645e-39
-1.9879894 -1.6719691 4.0733924 2.8580645e-39
-1.9696181 -1.6719706 4.0733957 2.8580645e-39
-1.9512466 -1.6719723 4.0734 2.8580645e-39
-1.9292008 -1.6719741 4.0734043 2.8580645e-39
-1.9108294 -1.6719759 4.0734081 2.8580645e-39
-1.8994689 -1.6753531 4.0726871 5.9927159e-39
0.19507097 -1.6746658 4.0799623 3.7800208e-39
0.20973028 -1.6741686 4.0787511 3.7800208e-39
0.23170404 -1.6734232 4.0769348 3.6878252e-39
0.25000098 -1.6728024 4.0754223 3.5034339e-39
0.26829103 -1.6759037 4.0740247 3.7800208e-39
0.29026857 -1.6754756 4.0729852 3.6878252e-39
0.31224501 -1.6751031 4.0720816 3.5956296e-39
0.33055156 -1.674793 4.0713291 3.5956296e-39
0.34885094 -1.6744833 4.0705781 3.5956296e-39
0.37080154 -1.6741117 4.0696769 3.5034339e-39
0.39117479 -1.6740589 4.0677662 3.5956296e-39
0.40893167 -1.6731749 4.0691881 3.226847e-39
0.42928919 -1.6731228 4.0672779 3.3190427e-39
0.45203248 -1.6721526 4.0738397 2.8580645e-39
0.47040814 -1.6721539 4.0738425 2.8580645e-39
0.48878384 -1.6721553 4.0738454 2.8580645e-39
0.51083469 -1.6721568 4.0738492 2.8580645e-39
0.52921045 -1.672158 4.0738525 2.8580645e-39
0.54758626 -1.6721592 4.0738559 2.8580645e-39
0.56963724 -1.6721607 4.0738597 2.8580645e-39
0.59168822 -1.6721624 4.0738635 2.8580645e-39
0.61006415 -1.6721637 4.0738659 2.8580645e-39
0.62844002 -1.6721649 4.0738697 2.8580645e-39
0.65049112 -1.6721665 4.073873 2.8580645e-39
0.67254233 -1.6721681 4.0738769 2.8580645e-39
0.69091833 -1.6721692 4.0738802 2.8580645e-39
0.70929432 -1.6721706 4.0738831 2.8580645e-39
0.73134565 -1.6721722 4.0738869 2.8580645e-39
0.74972171 -1.6721735 4.0738897 2.8580645e-39
0.76809788 -1.6721746 4.0738931 2.8580645e-39
0.79014921 -1.6721764 4.0738969 2.8580645e-39
0.81220061 -1.6721778 4.0739007 2.8580645e-39
0.8305769 -1.6721791 4.073904 2.8580645e-39
0.84895307 -1.6721805 4.0739069 2.8580645e-39
0.87100464 -1.6721817 4.0739102 2.8580645e-39
0.88570571 -1.6721829 4.0739131 2.8580645e-39
-1.8973376 -1.7668287 4.0945282 9.219563e-39
-0.029583875 -1.7676201 4.0992122 4.1488033e-39
-0.011090449 -1.7669611 4.0976834 4.1488033e-39
0.011084017 -1.7661705 4.0958505 4.1488033e-39
0.029548049 -1.7655122 4.0943241 4.1488033e-39
0.047997404 -1.7648548 4.0927992 4.1488033e-39
0.070119053 -1.7640662 4.0909705 4.1488033e-39
0.092221595 -1.7669801 4.0891728 4.1488033e-39
0.11062536 -1.7663226 4.0876517 4.1488033e-39
0.12901451 -1.7656657 4.0861316 4.1488033e-39
0.15106399 -1.7648782 4.0843086 4.1488033e-39
0.169424 -1.7642223 4.0827913 4.1488033e-39
0.18776946 -1.763567 4.0812745 4.1488033e-39
0.20243709 -1.7630429 4.0800619 4.1488033e-39
-1.8975126 -1.7498459 4.0922513 9.219563e-39
-0.040684789 -1.7457473 4.0999517 4.1488033e-39
-0.029582806 -1.7490669 4.0990639 4.1488033e-39
-0.011090047 -1.7484146 4.0975351 4.1488033e-39
0.010160206 -1.7485921 4.0957861 4.1488033e-39
0.029547192 -1.7506876 4.0942059 4.1488033e-39
0.047996014 -1.7500354 4.0926805 4.1488033e-39
0.070117027 -1.7492536 4.0908523 4.1488033e-39
0.09221895 -1.7521739 4.0890551 4.1488033e-39
0.11062216 -1.7515219 4.0875335 4.1488033e-39
0.1290108 -1.7508707 4.0860133 4.1488033e-39
0.15105964 -1.7500895 4.0841913 4.1488033e-39
0.16941911 -1.7494392 4.0826726 4.1488033e-39
0.18776403 -1.7487895 4.0811567 4.1488033e-39
0.20243417 -1.7556564 4.0800033 4.1488033e-39
-1.897611 -1.7293304 4.0908713 9.219563e-39
-0.040683612 -1.7309027 4.099833 4.1488033e-39
-0.029581733 -1.7305152 4.0989151 4.1488033e-39
-0.011089645 -1.72987 4.0973868 4.1488033e-39
0.012138598 -1.7306479 4.0954795 4.1488033e-39
0.029546125 -1.7321577 4.0940576 4.1488033e-39
0.04799429 -1.7315125 4.0925326 4.1488033e-39
0.070114493 -1.730739 4.0907044 4.1488033e-39
0.092214942 -1.7299662 4.0888772 4.1488033e-39
0.11061737 -1.7293226 4.0873566 4.1488033e-39
0.12900519 -1.7286795 4.0858369 4.1488033e-39
0.15105309 -1.7279085 4.0840139 4.1488033e-39
0.16867821 -1.72877 4.0825691 4.1488033e-39
0.18775725 -1.7303189 4.0810099 4.1488033e-39
-1.8973768 -1.7112604 4.0935507 9.219563e-39
-0.040682137 -1.7123481 4.0996842 4.1488033e-39
-0.029580662 -1.711965 4.0987673 4.1488033e-39
-0.011089244 -1.7113266 4.0972385 4.1488033e-39
0.011082814 -1.7105612 4.0954056 4.1488033e-39
0.029544843 -1.7099237 4.0938797 4.1488033e-39
0.047992207 -1.709287 4.0923557 4.1488033e-39
0.070111446 -1.7085233 4.0905271 4.1488033e-39
0.092210948 -1.7077603 4.0887008 4.1488033e-39
0.11061338 -1.7108245 4.0872087 4.1488033e-39
0.12900054 -1.7101884 4.0856891 4.1488033e-39
0.15104765 -1.7094256 4.0838666 4.1488033e-39
0.17014043 -1.710982 4.0823069 4.1488033e-39
0.1877505 -1.7118496 4.0808625 4.1488033e-39
-1.8974752 -1.6907458 4.0921712 9.219563e-39
-0.040680367 -1.6900845 4.0995064 4.1488033e-39
-0.029579377 -1.6897062 4.0985889 4.1488033e-39
-0.011088762 -1.6890762 4.0970607 4.1488033e-39
0.011082334 -1.6883208 4.0952282 4.1488033e-39
0.029543564 -1.6876917 4.0937023 4.1488033e-39
0.047990467 -1.6907668 4.0922074 4.1488033e-39
0.070108913 -1.6900116 4.0903792 4.1488033e-39
0.092207611 -1.689257 4.088553 4.1488033e-39
0.11060938 -1.6923279 4.0870614 4.1488033e-39
0.12899588 -1.6916984 4.0855417 4.1488033e-39
0.15104218 -1.6909441 4.0837197 4.1488033e-39
0.16939956 -1.6903157 4.0822024 4.1488033e-39
0.18774237 -1.689688 4.0806866 4.1488033e-39
-2.0888512 -1.6718191 4.0910091 6.1771072e-39
-2.0704005 -1.6718206 4.091013 2.8580645e-39
-2.0482595 -1.6718225 4.0910182 2.8580645e-39
-2.0298088 -1.6718242 4.0910215 2.8580645e-39
-2.011358 -1.6718259 4.0910258 2.8580645e-39
-1.9892167 -1.6718277 4.0910301 2.8580645e-39
-1.9707657 -1.6718292 4.0910339 2.8580645e-39
-1.9523147 -1.6718311 4.0910382 2.8580645e-39
-1.9301734 -1.6718329 4.091043 2.8580645e-39
-1.9080323 -1.6718348 4.0910478 2.8580645e-39
-1.8974664 -1.6759715 4.0921516 6.8224766e-39
-0.04067919 -1.675243 4.0993876 4.1488033e-39
-0.029578522 -1.6748681 4.0984702 4.1488033e-39
-0.011088441 -1.6742436 4.0969424 3.7800208e-39
0.011082013 -1.6734948 4.0951099 3.6878252e-39
0.029542707 -1.6728714 4.0935841 3.5956296e-39
0.047989074 -1.675952 4.0920892 3.6878252e-39
0.070117399 -1.6754452 4.0908527 3.6878252e-39
0.092239298 -1.6750711 4.0899415 3.5956296e-39
0.11066693 -1.6747596 4.0891829 3.5956296e-39
0.12908725 -1.6744484 4.0884247 3.5956296e-39
0.15118295 -1.6740751 4.0875154 3.5034339e-39
0.16958876 -1.6737645 4.0867586 3.5034339e-39
0.18657057 -1.6732115 4.0872097 3.3190427e-39
0.21038346 -1.6719948 4.0914388 2.8580645e-39
0.23252928 -1.6719965 4.0914426 2.8580645e-39
0.25098419 -1.6719975 4.0914459 2.8580645e-39
0.26943913 -1.671999 4.0914493 2.8580645e-39
0.29158506 -1.6720004 4.0914531 2.8580645e-39
0.31004006 -1.6720016 4.0914559 2.8580645e-39
0.32849512 -1.6720031 4.0914598 2.8580645e-39
0.35064113 -1.6720046 4.0914631 2.8580645e-39
0.36909622 -1.6720059 4.091466 2.8580645e-39
0.38755131 -1.6720071 4.0914693 2.8580645e-39
0.4096975 -1.6720086 4.0914731 2.8580645e-39
0.43184367 -1.6720103 4.0914769 2.8580645e-39
0.45029894 -1.6720116 4.0914803 2.8580645e-39
0.46875414 -1.6720128 4.0914836 2.8580645e-39
0.49090049 -1.6720146 4.0914874 2.8580645e-39
0.50935572 -1.6720157 4.0914898 2.8580645e-39
0.52781105 -1.672017 4.0914931 2.8580645e-39
0.54995751 -1.6720185 4.0914974 2.8580645e-39
0.57210398 -1.6720201 4.0915012 2.8580645e-39
0.59055942 -1.6720214 4.0915041 2.8580645e-39
0.60901487 -1.6720225 4.0915074 2.8580645e-39
0.63116145 -1.6720241 4.0915108 2.8580645e-39
0.64961696 -1.6720254 4.0915141 2.8580645e-39
0.66807252 -1.6720268 4.091517 2.8580645e-39
0.69021922 -1.6720284 4.0915217 2.8580645e-39
0.71236593 -1.67203 4.0915246 2.8580645e-39
0.73082161 -1.6720312 4.0915279 2.8580645e-39
0.74927717 -1.6720324 4.0915313 2.8580645e-39
0.77142406 -1.6720339 4.0915351 2.8580645e-39
0.7898798 -1.6720352 4.0915384 2.8580645e-39
0.8083356 -1.6720366 4.0915413 2.8580645e-39
0.83048248 -1.6720381 4.0915451 2.8580645e-39
0.84893835 -1.6720393 4.091548 2.8580645e-39
0.86739421 -1.6720406 4.0915513 2.8580645e-39
0.88735121 -1.6700879 4.0927997 2.8580645e-39
0.89037067 -1.6514344 4.0953703 2.8580645e-39
0.89039677 -1.6293153 4.0954905 2.8580645e-39
0.89041859 -1.6108817 4.0955906 2.8580645e-39
0.89044023 -1.5924469 4.0956903 2.8580645e-39
0.89046639 -1.5703244 4.0958104 2.8580645e-39
0.8904925 -1.5482006 4.0959306 2.8580645e-39
0.89051419 -1.529763 4.0960302 2.8580645e-39
0.89053601 -1.5113245 4.0961308 2.8580645e-39
0.89055341 -1.4965732 4.096211 2.8580645e-39
-0.27874178 -1.7802308 4.1198382 4.1488033e-39
-1.8958468 -1.7697043 4.1126499 9.219563e-39
-0.27033013 -1.7715404 4.1190758 4.1488033e-39
-0.24885713 -1.771709 4.1173081 4.1488033e-39
-0.23019904 -1.7710453 4.1157656 4.1488033e-39
-0.21155587 -1.7703823 4.1142249 4.1488033e-39
-0.18920189 -1.7695873 4.1123772 4.1488033e-39
-0.17058843 -1.7689251 4.1108384 4.1488033e-39
-0.15198985 -1.7682635 4.1093011 4.1488033e-39
-0.13061827 -1.7684327 4.107542 4.1488033e-39
-0.11112119 -1.7705265 4.1059523 4.1488033e-39
-0.092566907 -1.769865 4.1044188 4.1488033e-39
-0.070319504 -1.7690721 4.1025796 4.1488033e-39
-0.048092026 -1.7682797 4.1007419 4.1488033e-39
-1.8958327 -1.7474309 4.1126189 9.219563e-39
-0.27125293 -1.750134 4.1189804 4.1488033e-39
-0.24884626 -1.7493471 4.1171284 4.1488033e-39
-0.23018901 -1.7486917 4.1155863 4.1488033e-39
-0.21154663 -1.748037 4.1140456 4.1488033e-39
-0.1902584 -1.7494164 4.1123028 4.1488033e-39
-0.17058223 -1.7503192 4.1106892 4.1488033e-39
-0.15198432 -1.7496648 4.1091523 4.1488033e-39
-0.12862363 -1.7504357 4.1072335 4.1488033e-39
-0.11111715 -1.751943 4.105804 4.1488033e-39
-0.092563547 -1.7512885 4.1042695 4.1488033e-39
-0.070316948 -1.7505038 4.1024308 4.1488033e-39
-0.050206143 -1.7508548 4.1007771 4.1488033e-39
-1.8958211 -1.7288702 4.1125937 9.219563e-39
-0.28618446 -1.7208234 4.119976 4.1488033e-39
-0.2712411 -1.7277639 4.1188006 4.1488033e-39
-0.24883722 -1.7307135 4.1169786 4.1488033e-39
-0.23018064 -1.7300652 4.115437 4.1488033e-39
-0.21153896 -1.7294174 4.1138959 4.1488033e-39
-0.1882568 -1.7313999 4.1119938 4.1488033e-39
-0.17057604 -1.7317151 4.1105399 4.1488033e-39
-0.15197881 -1.7310674 4.1090031 4.1488033e-39
-0.12967992 -1.7302908 4.1071601 4.1488033e-39
-0.11111233 -1.7296443 4.1056252 4.1488033e-39
-0.092559516 -1.7289982 4.1040912 4.1488033e-39
-0.070313901 -1.7282236 4.102253 4.1488033e-39
-0.051790629 -1.7275785 4.1007218 4.1488033e-39
-1.8958093 -1.7103094 4.1125684 9.219563e-39
-0.28617823 -1.7096362 4.1198864 4.1488033e-39
-0.27123123 -1.7091235 4.1186509 4.1488033e-39
-0.24882817 -1.7120814 4.1168294 4.1488033e-39
-0.23017228 -1.7114402 4.1152873 4.1488033e-39
-0.21153124 -1.7107993 4.1137462 4.1488033e-39
-0.18917988 -1.710031 4.1118989 4.1488033e-39
-0.17056863 -1.7093915 4.1103606 4.1488033e-39
-0.15197217 -1.7087522 4.1088238 4.1488033e-39
-0.12967426 -1.7079858 4.1069808 4.1488033e-39
-0.11185016 -1.7088592 4.1055193 4.1488033e-39
-0.092556171 -1.7104244 4.1039424 4.1488033e-39
-0.070311345 -1.709658 4.1021037 4.1488033e-39
-0.051788758 -1.7090199 4.1005726 4.1488033e-39
-1.8957955 -1.688037 4.1125383 9.219563e-39
-0.28616783 -1.6909918 4.1197362 4.1488033e-39
-0.27122137 -1.6904848 4.1185012 4.1488033e-39
-0.24881734 -1.6897246 4.1166496 4.1488033e-39
-0.2301622 -1.6890917 4.115108 4.1488033e-39
-0.21152203 -1.6884594 4.1135669 4.1488033e-39
-0.18917166 -1.6877013 4.1117201 4.1488033e-39
-0.17056242 -1.6907899 4.1102114 4.1488033e-39
-0.15196668 -1.6901579 4.1086745 4.1488033e-39
-0.12966956 -1.6893997 4.106832 4.1488033e-39
-0.11036159 -1.6909726 4.1052542 4.1488033e-39
-0.092552811 -1.6918521 4.1037936 4.1488033e-39
-0.070308797 -1.691094 4.1019549 4.1488033e-39
-0.051786888 -1.6904631 4.1004243 4.1488033e-39
-2.0905223 -1.6716766 4.1088009 6.1771072e-39
-2.0719917 -1.6716782 4.1088052 2.8580645e-39
-2.0497541 -1.6716801 4.1088095 2.8580645e-39
-2.0275168 -1.671682 4.1088142 2.8580645e-39
-2.0089858 -1.6716838 4.1088181 2.8580645e-39
-1.9904543 -1.6716852 4.1088219 2.8580645e-39
-1.968217 -1.6716871 4.1088271 2.8580645e-39
-1.9496858 -1.6716888 4.1088309 2.8580645e-39
-1.9311546 -1.6716903 4.1088352 2.8580645e-39
-1.908917 -1.6716924 4.1088395 2.8580645e-39
-1.8957865 -1.6731893 4.1125188 5.9927159e-39
-0.28615949 -1.676077 4.1196165 4.1488033e-39
-0.27121344 -1.6755744 4.1183815 4.1488033e-39
-0.24881007 -1.674821 4.1165299 4.1488033e-39
-0.23015553 -1.6741939 4.1149883 3.7800208e-39
-0.21151589 -1.6735672 4.1134477 3.7800208e-39
-0.18916614 -1.6728157 4.1116004 3.7800208e-39
-0.17055745 -1.6759098 4.1100922 3.7800208e-39
-0.15197383 -1.6754144 4.1088786 3.7800208e-39
-0.12970479 -1.6750387 4.1079588 3.6878252e-39
-0.1089412 -1.6741469 4.1075907 3.5034339e-39
-0.091116741 -1.6749296 4.1058779 3.6878252e-39
-0.07036937 -1.6740384 4.1055102 3.5034339e-39
-0.049628366 -1.6733478 4.1056356 3.3190427e-39
-0.029655624 -1.6718358 4.1091919 2.8580645e-39
-0.011120867 -1.6718372 4.1091952 2.8580645e-39
0.011120879 -1.6718388 4.109199 2.8580645e-39
0.029655699 -1.67184 4.1092024 2.8580645e-39
0.048190549 -1.6718413 4.1092052 2.8580645e-39
0.070432402 -1.6718429 4.1092095 2.8580645e-39
0.088967316 -1.6718441 4.1092129 2.8580645e-39
0.10750226 -1.6718454 4.1092162 2.8580645e-39
0.12974422 -1.671847 4.10922 2.8580645e-39
0.15198623 -1.6718487 4.1092234 2.8580645e-39
0.17052126 -1.6718497 4.1092262 2.8580645e-39
0.18905634 -1.6718512 4.1092296 2.8580645e-39
0.21129847 -1.6718527 4.1092334 2.8580645e-39
0.22983359 -1.671854 4.1092367 2.8580645e-39
0.24836874 -1.6718553 4.1092401 2.8580645e-39
0.27061096 -1.6718569 4.1092439 2.8580645e-39
0.28914618 -1.6718581 4.1092472 2.8580645e-39
0.30768144 -1.6718594 4.1092505 2.8580645e-39
0.32992378 -1.6718611 4.1092544 2.8580645e-39
0.35216618 -1.6718626 4.1092582 2.8580645e-39
0.37070149 -1.6718638 4.109261 2.8580645e-39
0.3892369 -1.6718651 4.1092644 2.8580645e-39
0.41147938 -1.6718668 4.1092682 2.8580645e-39
0.43001485 -1.6718681 4.109271 2.8580645e-39
0.44855031 -1.6718693 4.1092744 2.8580645e-39
0.47079292 -1.6718708 4.1092782 2.8580645e-39
0.48932841 -1.6718721 4.1092815 2.8580645e-39
0.507864 -1.6718735 4.1092844 2.8580645e-39
0.53010672 -1.671875 4.1092887 2.8580645e-39
0.55234951 -1.6718765 4.1092925 2.8580645e-39
0.57088518 -1.6718779 4.1092958 2.8580645e-39
0.5894208 -1.6718792 4.1092987 2.8580645e-39
0.61166364 -1.6718807 4.109302 2.8580645e-39
0.63019943 -1.6718819 4.1093054 2.8580645e-39
0.64873517 -1.6718832 4.1093087 2.8580645e-39
0.67097825 -1.6718849 4.1093125 2.8580645e-39
0.68951404 -1.6718862 4.1093159 2.8580645e-39
0.70804995 -1.6718874 4.1093192 2.8580645e-39
0.73029298 -1.6718889 4.109323 2.8580645e-39
0.75253612 -1.6718906 4.1093268 2.8580645e-39
0.77107203 -1.6718919 4.1093302 2.8580645e-39
0.78960806 -1.6718931 4.109333 2.8580645e-39
0.81185132 -1.6718947 4.1093369 2.8580645e-39
0.83038735 -1.671896 4.1093397 2.8580645e-39
0.84892344 -1.6718973 4.1093431 2.8580645e-39
0.87116677 -1.6718988 4.1093469 2.8580645e-39
0.88599575 -1.6718999 4.1093497 2.8580645e-39
-1.8947263 -1.7830528 4.126369 9.219563e-39
-0.51154369 -1.7847995 4.1390519 4.1488033e-39
-0.49042758 -1.7847958 4.1373129 4.1488033e-39
-0.47008431 -1.7870655 4.1356554 4.1488033e-39
-0.45126081 -1.7863932 4.1340995 4.1488033e-39
-0.42869076 -1.7855868 4.1322331 4.1488033e-39
-0.40989739 -1.7849157 4.1306801 4.1488033e-39
-0.39111915 -1.7842449 4.129128 4.1488033e-39
-0.36860332 -1.7834406 4.1272664 4.1488033e-39
-0.34985512 -1.7827709 4.1257167 4.1488033e-39
-0.33112195 -1.782102 4.1241684 4.1488033e-39
-0.30866015 -1.7812996 4.1223121 4.1488033e-39
-0.28995693 -1.7806313 4.1207652 4.1488033e-39
-1.8947172 -1.7681545 4.126349 9.219563e-39
-0.51152879 -1.7698122 4.1389313 4.1488033e-39
-0.48782983 -1.7705793 4.1369853 4.1488033e-39
-0.47007057 -1.7720906 4.1355348 4.1488033e-39
-0.45124757 -1.7714238 4.1339788 4.1488033e-39
-0.42867821 -1.7706244 4.132113 4.1488033e-39
-0.4098855 -1.7699589 4.1305594 4.1488033e-39
-0.39110774 -1.7692937 4.1290073 4.1488033e-39
-0.36859256 -1.768496 4.1271458 4.1488033e-39
-0.34984493 -1.7678322 4.1255965 4.1488033e-39
-0.33111474 -1.7709018 4.1240783 4.1488033e-39
-0.30865338 -1.7701044 4.122221 4.1488033e-39
-0.28995061 -1.7694404 4.1206751 4.1488033e-39
-1.8947054 -1.7495315 4.1263237 9.219563e-39
-0.52659488 -1.744112 4.139967 4.1488033e-39
-0.51151007 -1.7510794 4.1387806 4.1488033e-39
-0.48888719 -1.7502882 4.1369104 4.1488033e-39
-0.47004998 -1.7496295 4.1353531 4.1488033e-39
-0.45122781 -1.7489713 4.1337972 4.1488033e-39
-0.42865944 -1.7481821 4.1319318 4.1488033e-39
-0.41062006 -1.7490466 4.1304531 4.1488033e-39
-0.39109349 -1.7506056 4.1288567 4.1488033e-39
-0.36857912 -1.7498165 4.1269956 4.1488033e-39
-0.34983215 -1.7491595 4.1254458 4.1488033e-39
-0.33110267 -1.752236 4.1239281 4.1488033e-39
-0.30864218 -1.7514472 4.1220713 4.1488033e-39
-0.28994006 -1.7507905 4.1205254 4.1488033e-39
-1.8946937 -1.7309088 4.126298 9.219563e-39
-0.52657944 -1.7291226 4.1398458 4.1488033e-39
-0.51148766 -1.7286017 4.1385984 4.1488033e-39
-0.48886573 -1.7278208 4.1367288 4.1488033e-39
-0.47003281 -1.7309134 4.1352024 4.1488033e-39
-0.45121142 -1.7302624 4.1336465 4.1488033e-39
-0.42864382 -1.7294817 4.1317811 4.1488033e-39
-0.40910301 -1.7310483 4.1301842 4.1488033e-39
-0.39107925 -1.7319189 4.128706 4.1488033e-39
-0.36856568 -1.7311385 4.1268454 4.1488033e-39
-0.34981942 -1.7304884 4.1252961 4.1488033e-39
-0.33108819 -1.7298388 4.1237478 4.1488033e-39
-0.30862868 -1.7290603 4.1218915 4.1488033e-39
-0.29067597 -1.7299293 4.1204195 4.1488033e-39
-1.8946795 -1.7085618 4.126267 9.219563e-39
-0.52656019 -1.710387 4.1396942 4.1488033e-39
-0.51146889 -1.7098718 4.1384468 4.1488033e-39
-0.48884794 -1.7090992 4.1365771 4.1488033e-39
-0.47001565 -1.7121989 4.1350513 4.1488033e-39
-0.45119491 -1.7115548 4.1334953 4.1488033e-39
-0.42862815 -1.7107824 4.1316304 4.1488033e-39
-0.40983757 -1.7101394 4.1300778 4.1488033e-39
-0.39106211 -1.709497 4.1285257 4.1488033e-39
-0.36854956 -1.7087263 4.1266651 4.1488033e-39
-0.34980413 -1.7080847 4.1251154 4.1488033e-39
-0.33214507 -1.709613 4.123673 4.1488033e-39
-0.30861747 -1.7104059 4.1217413 4.1488033e-39
-0.29365546 -1.7098927 4.1205044 4.1488033e-39
-1.8946679 -1.6899395 4.1262417 9.219563e-39
-0.52654094 -1.6916529 4.1395431 4.1488033e-39
-0.51145017 -1.6911433 4.1382961 4.1488033e-39
-0.48883009 -1.6903793 4.1364269 4.1488033e-39
-0.46999502 -1.689743 4.1348701 4.1488033e-39
-0.45117509 -1.6891074 4.1333146 4.1488033e-39
-0.42860937 -1.6883453 4.1314492 4.1488033e-39
-0.40981963 -1.6877108 4.1298966 4.1488033e-39
-0.39104784 -1.6908131 4.1283746 4.1488033e-39
-0.36853611 -1.6900511 4.1265149 4.1488033e-39
-0.34979141 -1.6894166 4.1249647 4.1488033e-39
-0.33012724 -1.6915499 4.1233625 4.1488033e-39
-0.30860621 -1.6917529 4.1215906 4.1488033e-39
-0.29364479 -1.6912454 4.1203542 4.1488033e-39
-2.0847635 -1.6715336 4.12675 4.5175859e-39
-2.0698738 -1.6715348 4.1267529 2.8580645e-39
-2.0512617 -1.6715363 4.1267567 2.8580645e-39
-2.0289273 -1.6715384 4.126761 2.8580645e-39
-2.0103154 -1.67154 4.1267653 2.8580645e-39
-1.9917034 -1.6715416 4.1267695 2.8580645e-39
-1.9693686 -1.6715435 4.1267743 2.8580645e-39
-1.9507563 -1.671545 4.1267781 2.8580645e-39
-1.9321442 -1.6715466 4.1267819 2.8580645e-39
-1.9098095 -1.6715487 4.1267872 2.8580645e-39
-1.8947904 -1.6751583 4.1265087 6.730281e-39
-0.52652556 -1.6766664 4.1394219 4.1488033e-39
-0.51143527 -1.6761613 4.1381755 4.1488033e-39
-0.48881578 -1.6754041 4.1363058 4.1488033e-39
-0.46998131 -1.6747736 4.1347489 4.1488033e-39
-0.45116195 -1.6741437 4.1331935 3.9644121e-39
-0.42859688 -1.6733885 4.1313291 3.7800208e-39
-0.40980768 -1.6727593 4.129776 3.7800208e-39
-0.39103642 -1.6758672 4.1282544 3.8722165e-39
-0.36855713 -1.6752577 4.1267543 3.7800208e-39
-0.34987736 -1.6749432 4.1259809 3.7800208e-39
-0.33120507 -1.6746289 4.1252084 3.5956296e-39
-0.30880734 -1.674252 4.1242824 3.5956296e-39
-0.29148018 -1.6732254 4.1248093 3.3190427e-39
-0.27178687 -1.6716756 4.1271 2.8580645e-39
-0.24944846 -1.6716771 4.1271038 2.8580645e-39
-0.23083308 -1.6716783 4.1271071 2.8580645e-39
-0.21221769 -1.6716796 4.12711 2.8580645e-39
-0.18987916 -1.671681 4.1271138 2.8580645e-39
-0.16754059 -1.6716827 4.1271176 2.8580645e-39
-0.14892508 -1.671684 4.127121 2.8580645e-39
-0.13030954 -1.6716852 4.1271243 2.8580645e-39
-0.10797086 -1.6716868 4.1271281 2.8580645e-39
-0.089355275 -1.6716881 4.1271315 2.8580645e-39
-0.070739642 -1.6716895 4.1271348 2.8580645e-39
-0.048400849 -1.6716909 4.1271386 2.8580645e-39
-0.029785166 -1.6716924 4.127142 2.8580645e-39
-0.011169444 -1.6716938 4.1271453 2.8580645e-39
0.011169457 -1.6716952 4.1271491 2.8580645e-39
0.029785238 -1.6716964 4.127152 2.8580645e-39
0.048401047 -1.6716977 4.1271553 2.8580645e-39
0.070740066 -1.6716994 4.1271591 2.8580645e-39
0.089355938 -1.6717007 4.1271625 2.8580645e-39
0.10797185 -1.671702 4.1271653 2.8580645e-39
0.13031097 -1.6717037 4.1271691 2.8580645e-39
0.14892694 -1.6717049 4.1271725 2.8580645e-39
0.16754293 -1.6717062 4.1271758 2.8580645e-39
0.18988216 -1.6717076 4.1271796 2.8580645e-39
0.21222146 -1.6717094 4.1271834 2.8580645e-39
0.23083755 -1.6717105 4.1271868 2.8580645e-39
0.24945366 -1.6717119 4.1271901 2.8580645e-39
0.27179304 -1.6717134 4.1271939 2.8580645e-39
0.29040927 -1.6717148 4.1271973 2.8580645e-39
0.3090255 -1.6717161 4.1272006 2.8580645e-39
0.33136496 -1.6717176 4.1272044 2.8580645e-39
0.34998125 -1.6717191 4.1272078 2.8580645e-39
0.3685976 -1.6717204 4.1272106 2.8580645e-39
0.39093718 -1.6717218 4.127214 2.8580645e-39
0.40955353 -1.6717231 4.1272173 2.8580645e-39
0.42816997 -1.6717244 4.1272211 2.8580645e-39
0.45050967 -1.6717259 4.1272244 2.8580645e-39
0.46912616 -1.6717272 4.1272278 2.8580645e-39
0.48774263 -1.6717286 4.1272311 2.8580645e-39
0.51008242 -1.67173 4.1272349 2.8580645e-39
0.5324223 -1.6717316 4.1272388 2.8580645e-39
0.55103898 -1.6717329 4.1272421 2.8580645e-39
0.5696556 -1.6717343 4.1272454 2.8580645e-39
0.59199554 -1.6717358 4.1272488 2.8580645e-39
0.61061227 -1.6717372 4.1272526 2.8580645e-39
0.62922901 -1.6717383 4.1272559 2.8580645e-39
0.65156907 -1.6717401 4.1272597 2.8580645e-39
0.67018586 -1.6717415 4.1272631 2.8580645e-39
0.68880266 -1.6717428 4.1272659 2.8580645e-39
0.71114284 -1.6717442 4.1272697 2.8580645e-39
0.72975969 -1.6717455 4.1272726 2.8580645e-39
0.74837661 -1.6717467 4.1272759 2.8580645e-39
0.77071697 -1.6717485 4.1272802 2.8580645e-39
0.78933394 -1.6717496 4.1272831 2.8580645e-39
0.80795097 -1.671751 4.1272864 2.8580645e-39
0.83029133 -1.6717525 4.1272902 2.8580645e-39
0.84890836 -1.6717536 4.1272936 2.8580645e-39
0.86752552 -1.6717552 4.1272969 2.8580645e-39
0.88614261 -1.6717565 4.1273003 2.8580645e-39
-1.8929058 -1.7866246 4.1484985 9.219563e-39
-0.76176214 -1.7899534 4.1597066 4.1488033e-39
-0.75033444 -1.789547 4.158762 4.1488033e-39
-0.73129964 -1.7888699 4.1571884 4.1488033e-39
-0.70847654 -1.7880579 4.1553016 4.1488033e-39
-0.68947756 -1.7911422 4.1537609 4.1488033e-39
-0.67048883 -1.7904654 4.1521916 4.1488033e-39
-0.64772052 -1.7896537 4.1503091 4.1488033e-39
-0.62876236 -1.788978 4.1487422 4.1488033e-39
-0.60981941 -1.7883028 4.1471763 4.1488033e-39
-0.59088981 -1.7876279 4.1456118 4.1488033e-39
-0.57197547 -1.7869536 4.1440482 4.1488033e-39
-0.54929644 -1.7861452 4.1421733 4.1488033e-39
-0.5304125 -1.7854722 4.1406121 4.1488033e-39
-1.8930097 -1.7695521 4.1470871 9.219563e-39
-0.76173413 -1.7711257 4.1595535 4.1488033e-39
-0.75030684 -1.7707235 4.1586089 4.1488033e-39
-0.73127288 -1.7700534 4.1570358 4.1488033e-39
-0.70845056 -1.76925 4.155149 4.1488033e-39
-0.68945223 -1.7723414 4.1536088 4.1488033e-39
-0.67046422 -1.7716718 4.1520391 4.1488033e-39
-0.64769685 -1.7708687 4.150157 4.1488033e-39
-0.62873936 -1.7701999 4.1485901 4.1488033e-39
-0.60979712 -1.7695318 4.1470242 4.1488033e-39
-0.59086823 -1.7688642 4.1454597 4.1488033e-39
-0.57195449 -1.7681969 4.1438961 4.1488033e-39
-0.55035818 -1.7695777 4.1421285 4.1488033e-39
-0.530397 -1.7704792 4.140491 4.1488033e-39
-1.8929981 -1.7508358 4.1470609 9.219563e-39
-0.76360852 -1.7504828 4.159543 4.1488033e-39
-0.75027925 -1.7519015 4.1584563 4.1488033e-39
-0.73124599 -1.7512387 4.1568832 4.1488033e-39
-0.70842451 -1.7504439 4.1549969 4.1488033e-39
-0.68942189 -1.7497822 4.1534257 4.1488033e-39
-0.67043471 -1.7491211 4.1518564 4.1488033e-39
-0.64766842 -1.7483282 4.1499748 4.1488033e-39
-0.62871176 -1.7476683 4.1484079 4.1488033e-39
-0.60977477 -1.7507621 4.146872 4.1488033e-39
-0.59084654 -1.7501016 4.1453075 4.1488033e-39
-0.57193363 -1.7494416 4.1437449 4.1488033e-39
-0.54831475 -1.7514291 4.1418147 4.1488033e-39
-0.53113413 -1.7532647 4.1404142 4.1488033e-39
-1.8929839 -1.728376 4.1470304 9.219563e-39
-0.7654829 -1.7298404 4.1595325 4.1488033e-39
-0.75024623 -1.7293168 4.1582732 4.1488033e-39
-0.73121381 -1.7286627 4.1566997 4.1488033e-39
-0.70839334 -1.7278781 4.1548133 4.1488033e-39
-0.68939662 -1.7309843 4.1532736 4.1488033e-39
-0.6704101 -1.7303303 4.1517043 4.1488033e-39
-0.6476447 -1.7295462 4.1498227 4.1488033e-39
-0.62868869 -1.728893 4.1482558 4.1488033e-39
-0.60975242 -1.7319942 4.1467209 4.1488033e-39
-0.59082502 -1.7313405 4.1451564 4.1488033e-39
-0.57191265 -1.7306876 4.1435928 4.1488033e-39
-0.54923618 -1.7299048 4.1417184 4.1488033e-39
-0.5341292 -1.7293835 4.14047 4.1488033e-39
-1.892972 -1.7096599 4.1470046 9.219563e-39
-0.76545477 -1.7110159 4.15938 4.1488033e-39
-0.75021863 -1.7104979 4.1581206 4.1488033e-39
-0.73118687 -1.7098507 4.1565471 4.1488033e-39
-0.70836735 -1.7090749 4.1546612 4.1488033e-39
-0.68937141 -1.7121881 4.153121 4.1488033e-39
-0.6703856 -1.7115411 4.1515522 4.1488033e-39
-0.64762092 -1.7107652 4.1496706 4.1488033e-39
-0.62866563 -1.7101194 4.1481042 4.1488033e-39
-0.60972565 -1.7094741 4.1465383 4.1488033e-39
-0.59079891 -1.708829 4.1449738 4.1488033e-39
-0.57188749 -1.7081848 4.1434112 4.1488033e-39
-0.55029374 -1.7095908 4.1416435 4.1488033e-39
-0.53410971 -1.710645 4.1403189 4.1488033e-39
-1.8929602 -1.6909441 4.1469784 9.219563e-39
-0.76542664 -1.6921926 4.1592269 4.1488033e-39
-0.75019097 -1.6916803 4.157968 4.1488033e-39
-0.73116004 -1.6910403 4.156395 4.1488033e-39
-0.70834136 -1.690273 4.1545091 4.1488033e-39
-0.68934107 -1.6896342 4.1529384 4.1488033e-39
-0.67035604 -1.6889958 4.1513691 4.1488033e-39
-0.64854157 -1.689201 4.1495743 4.1488033e-39
-0.63116461 -1.6876775 4.1481299 4.1488033e-39
-0.6097033 -1.6907091 4.1463866 4.1488033e-39
-0.59077734 -1.6900711 4.1448221 4.1488033e-39
-0.57186669 -1.6894339 4.1432595 4.1488033e-39
-0.54825062 -1.691449 4.1413298 4.1488033e-39
-0.5340901 -1.6919079 4.1401672 4.1488033e-39
-2.086431 -1.6713883 4.1448536 6.1771072e-39
-2.0677378 -1.6713901 4.1448579 2.8580645e-39
-2.0490439 -1.6713917 4.1448622 2.8580645e-39
-2.0303504 -1.6713933 4.1448655 2.8580645e-39
-2.0079176 -1.6713952 4.1448708 2.8580645e-39
-1.989224 -1.6713967 4.1448746 2.8580645e-39
-1.9705302 -1.6713985 4.1448789 2.8580645e-39
-1.9480976 -1.6714004 4.1448836 2.8580645e-39
-1.9294035 -1.671402 4.1448879 2.8580645e-39
-1.9107097 -1.6714035 4.1448917 2.8580645e-39
-1.8938856 -1.6744496 4.1462708 5.4395422e-39
-0.76540411 -1.6771349 4.1591043 4.1488033e-39
-0.75016904 -1.6766272 4.1578455 4.1488033e-39
-0.73113853 -1.675993 4.1562724 4.1488033e-39
-0.70832056 -1.6752325 4.154387 4.1488033e-39
-0.6893208 -1.6745993 4.1528168 4.1488033e-39
-0.67033643 -1.6739665 4.1512475 3.9644121e-39
-0.6513654 -1.6733344 4.1496801 3.7800208e-39
-0.63051701 -1.6745164 4.1479721 3.8722165e-39
-0.60968542 -1.6756978 4.146265 3.8722165e-39
-0.59079421 -1.6751627 4.1449413 3.7800208e-39
-0.57199079 -1.6748468 4.1441617 3.7800208e-39
-0.54943579 -1.674468 4.1432266 3.5956296e-39
-0.53202152 -1.6733147 4.1434569 3.4112383e-39
-0.51229841 -1.6715139 4.145165 3.1346514e-39
-0.48986244 -1.6715155 4.1451693 2.8580645e-39
-0.47116581 -1.6715169 4.1451721 2.8580645e-39
-0.45246911 -1.671518 4.1451755 2.8580645e-39
-0.43003306 -1.6715196 4.1451793 2.8580645e-39
-0.40759692 -1.6715212 4.1451831 2.8580645e-39
-0.3889001 -1.6715226 4.1451864 2.8580645e-39
-0.37020326 -1.6715239 4.1451898 2.8580645e-39
-0.34776703 -1.6715255 4.1451936 2.8580645e-39
-0.32907015 -1.6715267 4.1451969 2.8580645e-39
-0.31037322 -1.671528 4.1452003 2.8580645e-39
-0.28793684 -1.6715294 4.1452041 2.8580645e-39
-0.26923987 -1.671531 4.1452074 2.8580645e-39
-0.25054285 -1.6715322 4.1452103 2.8580645e-39
-0.22810639 -1.6715337 4.1452146 2.8580645e-39
-0.20940931 -1.671535 4.1452179 2.8580645e-39
-0.1907122 -1.6715363 4.1452208 2.8580645e-39
-0.16827564 -1.6715379 4.145225 2.8580645e-39
